# .PCD v0.7 - Point Cloud Data file format
VERSION 0.7
FIELDS x y z
SIZE 4 4 4
TYPE F F F
COUNT 1 1 1
WIDTH 222
HEIGHT 1
VIEWPOINT 0 0 0 1 0 0 0
POINTS 222
DATA ascii
0.15623491 -0.086299479 -0.43506524
0.15691191 -0.08612299 -0.43504739
0.15791434 -0.085946478 -0.43602359
0.15860067 -0.085832097 -0.43601567
0.15961856 -0.085664004 -0.43699583
0.15220548 -0.087362163 -0.43118477
0.15289146 -0.087267011 -0.43116879
0.15359375 -0.087212376 -0.43115088
0.15427841 -0.087080762 -0.43112984
0.15496232 -0.087003268 -0.43112031
0.15563069 -0.086861573 -0.4311049
0.15659407 -0.0865549 -0.43206671
0.15726446 -0.086414255 -0.43205723
0.14987241 -0.088086225 -0.42823312
0.15056624 -0.088006124 -0.42821717
0.15125744 -0.087916166 -0.42820033
0.15194726 -0.0877904 -0.42817724
0.15262176 -0.087647423 -0.42816073
0.15328886 -0.087508559 -0.42815122
0.15395045 -0.087379202 -0.42814299
0.15460654 -0.087240472 -0.42813385
0.15526964 -0.087097183 -0.42812526
0.15592486 -0.086950824 -0.42811826
0.15627961 -0.086992584 -0.42714104
0.15693907 -0.086881578 -0.42713499
0.14712119 -0.088637084 -0.42621407
0.1478021 -0.088494495 -0.42620677
0.14820214 -0.088540331 -0.42517245
0.1488923 -0.088426858 -0.42517072
0.14957581 -0.08831095 -0.42517608
0.15055788 -0.088104531 -0.42617807
0.15123539 -0.087990656 -0.42617014
0.15190132 -0.087873094 -0.42616308
0.15256782 -0.087749206 -0.42615685
0.15322971 -0.087631963 -0.42615166
0.1538877 -0.087518193 -0.42614549
0.1545447 -0.087400325 -0.42613572
0.15520333 -0.087288514 -0.42613003
0.15586691 -0.087164856 -0.42612329
0.15652722 -0.087063901 -0.42611519
0.15718913 -0.086959094 -0.42610776
0.14877859 -0.088454485 -0.42512947
0.14945863 -0.088338874 -0.42513436
0.15013479 -0.088224828 -0.42513096
0.15080552 -0.088105991 -0.42513016
0.15178025 -0.087894306 -0.42611325
0.15244608 -0.087772623 -0.42610711
0.15310897 -0.08765164 -0.42610094
0.15376979 -0.087536097 -0.42609355
0.1544296 -0.087414242 -0.42608392
0.15509133 -0.087306157 -0.42607719
0.15575586 -0.087194182 -0.42606997
0.1564189 -0.087076634 -0.42606035
0.1570836 -0.086966075 -0.42605212
0.15743302 -0.087024063 -0.42507431
0.14603545 -0.088991851 -0.42306101
0.1470118 -0.088769019 -0.42408821
0.14769003 -0.088670298 -0.42408553
0.14835973 -0.088564001 -0.42408091
0.14934459 -0.088360488 -0.42509207
0.15001786 -0.088242441 -0.42508689
0.15068664 -0.088125207 -0.42508435
0.15135767 -0.088016801 -0.42508477
0.15232398 -0.087792888 -0.42605725
0.15298747 -0.0876702 -0.42604977
0.15365072 -0.087559253 -0.42604223
0.1543124 -0.087429017 -0.42603204
0.15497626 -0.087310724 -0.42602354
0.15564388 -0.087210685 -0.42601597
0.15630747 -0.087079041 -0.42600536
0.15697809 -0.08698523 -0.42599776
0.15733106 -0.087023579 -0.42501777
0.15800038 -0.086928815 -0.42501003
0.15866563 -0.086798601 -0.42499915
0.14366642 -0.089633763 -0.42207232
0.14432085 -0.089420818 -0.42205817
0.14497115 -0.089227989 -0.42204228
0.14593808 -0.089011811 -0.42304477
0.14660829 -0.088897914 -0.42304549
0.14758904 -0.08868169 -0.42406115
0.1482559 -0.08857891 -0.4240545
0.14892398 -0.08846122 -0.42405069
0.14959478 -0.088356093 -0.42405346
0.15026465 -0.088246979 -0.4240531
0.15123665 -0.088028692 -0.42503726
0.15190211 -0.087921783 -0.42503199
0.15256666 -0.087816231 -0.42502525
0.15322876 -0.087696791 -0.42501608
0.15419506 -0.087453581 -0.4259811
0.1548599 -0.087328531 -0.42597076
0.15553112 -0.087229371 -0.42596206
0.15589051 -0.087254062 -0.42498052
0.15655932 -0.087146305 -0.42497152
0.15722774 -0.087033533 -0.42496192
0.15789974 -0.086934522 -0.4249534
0.1585695 -0.086816527 -0.42494285
0.15924686 -0.0867256 -0.42493519
0.14290917 -0.089849234 -0.42205918
0.14357264 -0.089640565 -0.42205372
0.14422835 -0.089446723 -0.42204481
0.14488067 -0.089241087 -0.42203301
0.14584556 -0.089019068 -0.42303082
0.14651275 -0.088911034 -0.42302936
0.14718036 -0.088802099 -0.42302737
0.14784653 -0.088676952 -0.4230285
0.14881618 -0.088475227 -0.42402154
0.14948298 -0.088363491 -0.42401886
0.15015015 -0.088259391 -0.42401591
0.15111431 -0.088041775 -0.42499065
0.15177953 -0.087939665 -0.42498231
0.15244229 -0.087823875 -0.42497241
0.1531091 -0.087716475 -0.42496368
0.1537731 -0.08760161 -0.42495349
0.15444243 -0.087500654 -0.42494392
0.15511273 -0.087395959 -0.42493567
0.15577742 -0.08726006 -0.42492521
0.15644805 -0.087145492 -0.42491496
0.15712224 -0.087041318 -0.42490557
0.15779608 -0.08693704 -0.424896
0.15847123 -0.086827844 -0.42488581
0.15914935 -0.086718544 -0.42487663
0.14251395 -0.089904122 -0.42103863
0.14347762 -0.089656584 -0.42203614
0.14413546 -0.089461371 -0.42203024
0.14478666 -0.089259133 -0.42202142
0.14544244 -0.08910653 -0.42201579
0.14641304 -0.088925786 -0.4230119
0.14707598 -0.08879599 -0.42300946
0.14774251 -0.088694215 -0.42300779
0.14840379 -0.088567682 -0.42300424
0.14937158 -0.088371284 -0.42398646
0.15003622 -0.088273846 -0.42397973
0.15069854 -0.088166632 -0.42397198
0.15165325 -0.087950639 -0.42493251
0.15231693 -0.0878416 -0.42492005
0.15298738 -0.087733895 -0.4249109
0.1536535 -0.087621942 -0.42490059
0.15432313 -0.087515347 -0.42488885
0.15499696 -0.087411612 -0.42488053
0.15566413 -0.087275878 -0.42487016
0.15633951 -0.087164126 -0.42486
0.15701474 -0.087051325 -0.42484915
0.15769131 -0.08694572 -0.42483887
0.15836862 -0.086835377 -0.42482698
0.1590458 -0.086705811 -0.42481664
0.14144069 -0.089995116 -0.42002675
0.14242189 -0.089902468 -0.42102423
0.14308023 -0.089729048 -0.42102039
0.14403832 -0.0894733 -0.42201376
0.14469008 -0.089278273 -0.42200804
0.1453452 -0.08911664 -0.42200378
0.14631024 -0.088922963 -0.422995
0.14697091 -0.088796265 -0.42299104
0.14763632 -0.088702925 -0.42298681
0.14829497 -0.088567525 -0.42297995
0.14926134 -0.088386834 -0.42395478
0.14992093 -0.088283509 -0.42394385
0.15058123 -0.088177435 -0.42393407
0.15124586 -0.088085435 -0.42392161
0.15219155 -0.08785747 -0.42486879
0.15286201 -0.087743126 -0.42485949
0.15353221 -0.087641232 -0.4248471
0.15420336 -0.087529816 -0.42483565
0.15487733 -0.087421447 -0.42482483
0.15555112 -0.087299831 -0.42481452
0.15622705 -0.08717379 -0.4248043
0.15690638 -0.087063633 -0.42479295
0.1575892 -0.086963043 -0.42478332
0.15826373 -0.086836092 -0.42476919
0.14003092 -0.089791417 -0.41801459
0.14103028 -0.089890234 -0.41901374
0.1416872 -0.089736328 -0.4190101
0.14266697 -0.089670606 -0.42000765
0.1436386 -0.089545771 -0.42100295
0.14428066 -0.089297324 -0.42099872
0.14493434 -0.089135773 -0.42099634
0.14590679 -0.088999324 -0.42198953
0.14686678 -0.08881256 -0.4229728
0.14752837 -0.088715911 -0.42296547
0.14818805 -0.088584758 -0.42295659
0.14914447 -0.088394426 -0.42392087
0.14980638 -0.088299721 -0.42391074
0.15046367 -0.088193119 -0.42389613
0.15140019 -0.087981932 -0.42483449
0.15206194 -0.087874033 -0.42481965
0.15273394 -0.087760851 -0.42480758
0.15341119 -0.087657988 -0.42479631
0.15407585 -0.087532721 -0.42478353
0.15505072 -0.08727508 -0.42574918
0.15543275 -0.087312505 -0.42476177
0.15610942 -0.087186761 -0.42474928
0.15679736 -0.087074235 -0.42473945
0.157483 -0.086969413 -0.42473024
0.15815939 -0.086843923 -0.42471239
0.14191359 -0.089378804 -0.41799957
0.14290161 -0.089406811 -0.41899782
0.14387596 -0.089333244 -0.41999364
0.14453001 -0.08919163 -0.4199917
0.14549533 -0.089023948 -0.4209857
0.1461657 -0.088927865 -0.42098773
0.14713226 -0.088792346 -0.4219715
0.14779282 -0.088687524 -0.42196617
0.14873859 -0.088479623 -0.42292371
0.14940594 -0.088391714 -0.42291391
0.15034373 -0.088206798 -0.42385846
0.15099917 -0.088103555 -0.42383906
0.15165749 -0.088002607 -0.42381033
0.15260094 -0.087783098 -0.42475361
0.15328626 -0.087675564 -0.42474562
0.15425426 -0.087423652 -0.42570993
0.15492874 -0.087291345 -0.42569858
0.15560615 -0.087175675 -0.42567864
0.15628743 -0.087059759 -0.42566007
0.1566882 -0.087086856 -0.42468554
0.15737523 -0.08697553 -0.42467701
0.13987723 -0.089088656 -0.41399643
0.1515265 -0.088018931 -0.42376164
0.15246513 -0.087800398 -0.42470059
0.15315408 -0.08768408 -0.42469594
0.15411553 -0.087431759 -0.42566121
0.1547945 -0.08730714 -0.42564455
0.15397194 -0.087456621 -0.42560947
