# .PCD v0.7 - Point Cloud Data file format
VERSION 0.7
FIELDS x y z
SIZE 4 4 4
TYPE F F F
COUNT 1 1 1
WIDTH 599
HEIGHT 1
VIEWPOINT 0 0 0 1 0 0 0
POINTS 599
DATA ascii
0.16971801 -0.093584433 -0.32409048
0.17023741 -0.09350609 -0.32408321
0.1712739 -0.093344964 -0.32406822
0.16809675 -0.093836084 -0.32408574
0.16861616 -0.093753524 -0.32407823
0.16913497 -0.09367393 -0.32407141
0.16965149 -0.093596585 -0.32406574
0.17016907 -0.093519583 -0.32405946
0.17068402 -0.093429625 -0.32405248
0.17120092 -0.093358442 -0.32404688
0.17171688 -0.093288027 -0.32404178
0.1665494 -0.094314538 -0.32310066
0.16706491 -0.094175279 -0.32309076
0.16803771 -0.093847178 -0.32405794
0.16855502 -0.093765825 -0.32405147
0.16907121 -0.093686879 -0.32404572
0.16958633 -0.093610078 -0.32404068
0.17010131 -0.093532138 -0.32403541
0.17061362 -0.093441196 -0.32402971
0.17112845 -0.093370028 -0.32402512
0.17164256 -0.093301274 -0.32402116
0.17215677 -0.093233854 -0.32401717
0.17267245 -0.093177639 -0.32401368
0.16598359 -0.094469793 -0.32308033
0.16649714 -0.094341576 -0.32307276
0.16701028 -0.094206922 -0.32306379
0.1675193 -0.094071016 -0.32305592
0.16849385 -0.093777813 -0.32402468
0.16900784 -0.093698882 -0.32401982
0.16952138 -0.093623735 -0.32401559
0.17003417 -0.093546622 -0.32401136
0.17054492 -0.09345825 -0.3240068
0.17105737 -0.09338735 -0.3240034
0.1715688 -0.093313724 -0.32400021
0.17208098 -0.093250021 -0.32399777
0.17259473 -0.093200855 -0.32399619
0.16444211 -0.094931379 -0.32208303
0.16541977 -0.094598882 -0.32305855
0.16593315 -0.094489217 -0.32305232
0.16644421 -0.094360322 -0.3230449
0.16695519 -0.094234779 -0.32303712
0.16746035 -0.094081923 -0.3230288
0.16797037 -0.093978412 -0.32302275
0.1684791 -0.093870819 -0.32301652
0.16899157 -0.093799345 -0.32301238
0.16996729 -0.093559757 -0.32398707
0.1700145 -0.093657479 -0.32300508
0.17098622 -0.093401931 -0.32398143
0.17149526 -0.0933282 -0.32397947
0.17154542 -0.093454756 -0.32299697
0.17205767 -0.093408763 -0.32299578
0.1633642 -0.095087104 -0.32206568
0.1638791 -0.095014915 -0.32206181
0.16439487 -0.094939709 -0.32205766
0.16491036 -0.094855443 -0.32205305
0.1658821 -0.094503537 -0.32302436
0.16639115 -0.094377607 -0.32301724
0.16689923 -0.094254501 -0.32301033
0.16740294 -0.094105989 -0.32300237
0.16791016 -0.093997017 -0.32299668
0.16841578 -0.09388303 -0.3229911
0.16892566 -0.093810812 -0.32298803
0.16943523 -0.093740366 -0.32298526
0.16994415 -0.093670778 -0.32298303
0.17045136 -0.093597636 -0.32298127
0.17095917 -0.093527265 -0.32297966
0.1714666 -0.093463495 -0.32297909
0.17197634 -0.093419015 -0.32297936
0.1724861 -0.093380868 -0.32298052
0.16130456 -0.095410243 -0.32106978
0.16181913 -0.095349155 -0.32106656
0.16233402 -0.095287867 -0.32106319
0.16284759 -0.095215611 -0.32105929
0.16336006 -0.095141873 -0.3210555
0.16434734 -0.09494672 -0.32203239
0.16486104 -0.094862379 -0.32202792
0.16537291 -0.094769791 -0.32202318
0.16633804 -0.094398312 -0.32299015
0.16684313 -0.094272919 -0.32298365
0.16734517 -0.094128668 -0.32297623
0.16784877 -0.094008088 -0.32297042
0.1683521 -0.093893878 -0.32296574
0.16885981 -0.093822822 -0.32296368
0.1693671 -0.093752034 -0.3229619
0.16987318 -0.093680948 -0.32296097
0.17037733 -0.093608014 -0.32296085
0.17088316 -0.093543135 -0.322961
0.17138761 -0.09347263 -0.32296142
0.17189434 -0.093427435 -0.32296321
0.17240183 -0.09339229 -0.32296589
0.15821594 -0.09570203 -0.32007059
0.15872917 -0.09565907 -0.3200689
0.15924244 -0.095618069 -0.32006705
0.15975584 -0.095575638 -0.32006499
0.16026931 -0.095531575 -0.32006297
0.16078445 -0.095491394 -0.32006139
0.1612983 -0.095441543 -0.32005897
0.16229066 -0.095290974 -0.32103804
0.16280358 -0.095219932 -0.32103434
0.16331539 -0.095147751 -0.3210308
0.16382745 -0.095072195 -0.3210268
0.1643393 -0.094993338 -0.32102242
0.16485058 -0.094916143 -0.32101843
0.16536206 -0.094840027 -0.32101437
0.16633607 -0.094586536 -0.32198989
0.16684222 -0.094489254 -0.3219856
0.16734515 -0.094376281 -0.32198063
0.1678483 -0.094273224 -0.32197657
0.16835026 -0.094171427 -0.32197315
0.16885105 -0.094062641 -0.32196951
0.16890782 -0.094256304 -0.32099187
0.16941074 -0.094174996 -0.32098991
0.16991344 -0.094097063 -0.32098836
0.17041685 -0.094030164 -0.32098764
0.17092024 -0.09396676 -0.32098728
0.17142457 -0.093913227 -0.32098752
0.15766829 -0.095744215 -0.3200478
0.15818067 -0.095704213 -0.32004616
0.15869282 -0.095659763 -0.32004407
0.15920588 -0.095617302 -0.32004225
0.15971936 -0.095577389 -0.32004052
0.16023235 -0.0955346 -0.32003835
0.16074602 -0.095492199 -0.3200365
0.16125892 -0.095442064 -0.32003418
0.16177183 -0.095389821 -0.32003164
0.16275959 -0.095224455 -0.32100946
0.16327083 -0.095155232 -0.32100609
0.16378137 -0.095080622 -0.32100245
0.16429099 -0.095001727 -0.32099873
0.16479997 -0.094923533 -0.32099521
0.16530824 -0.094847895 -0.32099208
0.16581507 -0.094770253 -0.32098928
0.16632086 -0.094692416 -0.32098681
0.1668258 -0.094611481 -0.32098433
0.16686656 -0.094680019 -0.31999826
0.1673723 -0.094613165 -0.31999636
0.16787682 -0.094544739 -0.31999478
0.16838036 -0.094475821 -0.3199935
0.16888291 -0.094406322 -0.31999257
0.16938506 -0.094342187 -0.31999239
0.16988739 -0.094276324 -0.31999144
0.17039265 -0.094228804 -0.31999102
0.17090131 -0.09419103 -0.31998926
0.14870018 -0.096635491 -0.3161796
0.14920668 -0.096597508 -0.3161765
0.14971286 -0.096557118 -0.31617346
0.15021917 -0.096517228 -0.31617019
0.15072283 -0.096469574 -0.31616402
0.15122727 -0.096427523 -0.31615892
0.15173125 -0.096386544 -0.31615433
0.15421782 -0.096165292 -0.31711644
0.15518379 -0.096045941 -0.31808165
0.15569335 -0.096010096 -0.31807882
0.15717024 -0.095838577 -0.31904659
0.15768042 -0.095796868 -0.31904331
0.15865758 -0.095663369 -0.32001975
0.15917023 -0.095620073 -0.32001773
0.15968293 -0.095580921 -0.32001591
0.16019547 -0.095538206 -0.32001391
0.1607078 -0.095492087 -0.32001171
0.1612201 -0.095444813 -0.32000947
0.16173153 -0.09538918 -0.32000679
0.16224289 -0.095334947 -0.32000417
0.16275331 -0.095273584 -0.32000118
0.16326272 -0.095205329 -0.31999803
0.16377057 -0.095127963 -0.31999466
0.16427766 -0.09505596 -0.31999183
0.16478357 -0.094981074 -0.31998914
0.16528876 -0.094904855 -0.31998667
0.16579336 -0.094829082 -0.3199845
0.1658316 -0.094896965 -0.31899822
0.16633624 -0.094831355 -0.31899628
0.16684 -0.094765253 -0.31899461
0.16734403 -0.094705321 -0.3189933
0.16784874 -0.094652943 -0.31899247
0.16835637 -0.094620079 -0.31899148
0.16886447 -0.094591774 -0.31899065
0.16993575 -0.09471605 -0.31800258
0.14866209 -0.096639723 -0.31614515
0.14916869 -0.096602939 -0.31614214
0.14967421 -0.096561141 -0.3161386
0.15018065 -0.096521802 -0.3161357
0.15068455 -0.096472174 -0.31612965
0.15118957 -0.096430749 -0.31612542
0.15169434 -0.096390165 -0.31612125
0.15220064 -0.09634982 -0.316118
0.15270761 -0.096316978 -0.31611556
0.15321411 -0.096281499 -0.31611317
0.15417856 -0.096165597 -0.31708348
0.15468715 -0.096131496 -0.31708142
0.15565374 -0.09601181 -0.3180488
0.15616311 -0.0959782 -0.31804672
0.1571324 -0.095836177 -0.31901911
0.1576429 -0.095794432 -0.31901652
0.15815343 -0.095752805 -0.31901413
0.15866414 -0.095712051 -0.31901196
0.15964679 -0.095583692 -0.31999141
0.16015874 -0.095538713 -0.31998923
0.16067046 -0.095493928 -0.31998709
0.16070653 -0.095534138 -0.31900322
0.16169183 -0.095390536 -0.31998208
0.16220191 -0.095336892 -0.31997964
0.16271047 -0.09527529 -0.31997716
0.16321777 -0.09520857 -0.31997457
0.1632507 -0.095247775 -0.31899071
0.16375583 -0.09517625 -0.31898811
0.1637906 -0.095246941 -0.31800362
0.16429709 -0.095190719 -0.31800112
0.16530831 -0.095080189 -0.3179965
0.1658136 -0.095028944 -0.31799445
0.16839516 -0.095051408 -0.31700948
0.1688993 -0.09500587 -0.31700748
0.16940191 -0.094943188 -0.31700435
0.14811791 -0.096678734 -0.31611305
0.14818512 -0.096711971 -0.31514367
0.14868759 -0.096670814 -0.31513858
0.14919145 -0.096629888 -0.3151345
0.14969438 -0.096585743 -0.31512889
0.15019847 -0.096545421 -0.31512511
0.15070298 -0.096506417 -0.31512174
0.1512073 -0.096466519 -0.31511816
0.15216289 -0.096355647 -0.31608504
0.15266907 -0.096317641 -0.31608224
0.15317544 -0.096282467 -0.31607971
0.15368196 -0.096249215 -0.31607744
0.15464759 -0.096134856 -0.31704876
0.15515585 -0.096099399 -0.31704661
0.15566446 -0.096067846 -0.31704494
0.15663342 -0.095943883 -0.31801516
0.15714262 -0.095906913 -0.31801298
0.15765205 -0.095872238 -0.31801096
0.15862857 -0.095713846 -0.31898734
0.15913963 -0.095678173 -0.31898567
0.16067046 -0.095534094 -0.31897959
0.16117977 -0.095482782 -0.3189773
0.16168848 -0.095431753 -0.31897509
0.16219629 -0.095375262 -0.318973
0.16222627 -0.095441453 -0.31798843
0.16273142 -0.095372923 -0.31798553
0.16276743 -0.09548302 -0.31700602
0.16327223 -0.095424667 -0.31700265
0.1637767 -0.095367029 -0.3169995
0.16381438 -0.095459864 -0.31602105
0.16431905 -0.095414728 -0.31601804
0.16482352 -0.095372535 -0.31601563
0.16532819 -0.09533333 -0.31601337
0.16583289 -0.095301151 -0.31601173
0.16633847 -0.095273778 -0.31601024
0.16684404 -0.095252514 -0.31600943
0.16734855 -0.095226273 -0.3160086
0.16785164 -0.09518417 -0.31600672
0.16835462 -0.095129855 -0.31600356
0.16835369 -0.095165774 -0.31502932
0.14714213 -0.096794404 -0.31511703
0.1476441 -0.096754707 -0.31511194
0.14814699 -0.096716732 -0.31510746
0.14864977 -0.09667626 -0.31510273
0.14915252 -0.096629359 -0.31509709
0.14965591 -0.09658803 -0.31509307
0.15016009 -0.096548095 -0.31508967
0.15066454 -0.096508898 -0.31508642
0.15116914 -0.096470118 -0.31508332
0.1516736 -0.096433304 -0.31508049
0.15217723 -0.096393846 -0.31507686
0.15268068 -0.096356235 -0.31507325
0.15364322 -0.096249886 -0.31604382
0.15414937 -0.096216403 -0.31604156
0.15465569 -0.096181408 -0.31603926
0.15562464 -0.096070357 -0.31701186
0.15613252 -0.096036218 -0.31700969
0.15664046 -0.096003912 -0.31700757
0.15714832 -0.095971301 -0.31700543
0.15765631 -0.095939681 -0.31700337
0.16117509 -0.095575348 -0.31796837
0.16120578 -0.095657878 -0.31698582
0.16331813 -0.095673271 -0.31403896
0.16382037 -0.095643148 -0.31403795
0.16431969 -0.095613323 -0.31403825
0.16481948 -0.095580436 -0.31403762
0.1653188 -0.095546208 -0.314037
0.16581494 -0.095501781 -0.31403655
0.16631423 -0.095457435 -0.31403431
0.16680697 -0.095365182 -0.31402957
0.16730689 -0.095295079 -0.31402433
0.16780385 -0.095183611 -0.31401607
0.14660051 -0.096840657 -0.31508398
0.14710245 -0.096799538 -0.315079
0.14861123 -0.096679121 -0.31506589
0.14911394 -0.096632294 -0.31506082
0.14961772 -0.096592039 -0.31505743
0.15012185 -0.096552208 -0.31505424
0.15062603 -0.096512713 -0.31505111
0.15113047 -0.0964728 -0.31504813
0.1516348 -0.096434928 -0.31504524
0.15213904 -0.096397579 -0.31504226
0.152643 -0.096359313 -0.3150391
0.15314674 -0.096319959 -0.31503588
0.15411115 -0.096217811 -0.31600818
0.15461732 -0.096182242 -0.31600583
0.15512393 -0.096151382 -0.3160038
0.15563034 -0.09611927 -0.31600171
0.15613666 -0.096086383 -0.31599954
0.15970992 -0.095891878 -0.31500667
0.16021422 -0.095854975 -0.31500417
0.16071765 -0.095811993 -0.31500143
0.16225626 -0.09573736 -0.31401384
0.16228038 -0.095791832 -0.3130345
0.16278055 -0.095771953 -0.31303439
0.16328105 -0.095749363 -0.31303391
0.16378053 -0.095724873 -0.31303373
0.16427891 -0.095700599 -0.31303397
0.16477507 -0.095665596 -0.31303412
0.16527432 -0.095626898 -0.3130323
0.16576985 -0.095561728 -0.31302926
0.1662652 -0.095456026 -0.31302184
0.1667628 -0.095356986 -0.31301409
0.16726221 -0.095285229 -0.31300831
0.14605542 -0.09687867 -0.31504768
0.1461242 -0.096873581 -0.31407666
0.14662598 -0.096834041 -0.31407282
0.14712729 -0.096791968 -0.31406841
0.14812933 -0.096708618 -0.31405881
0.14863107 -0.096673846 -0.31405485
0.14913359 -0.096641466 -0.31405121
0.1496361 -0.096608579 -0.31404757
0.15013842 -0.096573196 -0.31404388
0.15064059 -0.096533731 -0.31404009
0.15114331 -0.096496224 -0.31403685
0.15210021 -0.096397594 -0.31500703
0.15260455 -0.096360072 -0.31500438
0.15310891 -0.096322857 -0.31500182
0.15361354 -0.096288197 -0.31499946
0.15411821 -0.096253447 -0.31499714
0.15462296 -0.096219219 -0.31499493
0.15512767 -0.096186452 -0.31499273
0.1556325 -0.096154191 -0.31499061
0.15613739 -0.096124329 -0.31498861
0.15664269 -0.096100092 -0.31498694
0.15667628 -0.096129008 -0.31400922
0.15969366 -0.095925376 -0.31399602
0.15972003 -0.095947482 -0.31301516
0.16022141 -0.095907971 -0.31301254
0.16172497 -0.095814399 -0.31300718
0.1617433 -0.095868126 -0.31202883
0.16224259 -0.095844939 -0.31202826
0.16274187 -0.095826089 -0.3120279
0.16324006 -0.095804974 -0.31202763
0.16373834 -0.09578453 -0.31202734
0.16423574 -0.095760874 -0.31202728
0.16473427 -0.09572418 -0.31202534
0.16522969 -0.095646918 -0.31202057
0.16572739 -0.095567927 -0.31201461
0.16622588 -0.095498793 -0.31200925
0.1667238 -0.095424689 -0.31200349
0.14601234 -0.096882179 -0.31500643
0.14608076 -0.096877396 -0.31403309
0.14658289 -0.096838944 -0.3140296
0.14708436 -0.096793786 -0.31402537
0.14714427 -0.096765526 -0.31305179
0.14864621 -0.096656255 -0.31304064
0.14914645 -0.0966179 -0.31303662
0.15009846 -0.096568815 -0.31400555
0.15060122 -0.096533135 -0.31400275
0.15064874 -0.096511841 -0.31302637
0.15160683 -0.096460268 -0.31399739
0.1521102 -0.096430935 -0.3139953
0.15261328 -0.096398361 -0.31399301
0.15311624 -0.096363224 -0.31399056
0.15361902 -0.096324541 -0.31398797
0.15412198 -0.096286945 -0.3139855
0.15462494 -0.096248671 -0.31398308
0.15512814 -0.096214525 -0.31398094
0.15563163 -0.096185625 -0.31397909
0.15613531 -0.096158355 -0.31397742
0.15616636 -0.096181132 -0.31299949
0.1566681 -0.096151151 -0.31299749
0.16019578 -0.095944121 -0.3120034
0.16069552 -0.095917046 -0.31200194
0.16119555 -0.095893003 -0.31200063
0.16169554 -0.095867932 -0.3119992
0.16219594 -0.09584628 -0.31199789
0.16269679 -0.095827386 -0.31199661
0.1631979 -0.095808446 -0.31199524
0.16369912 -0.095787987 -0.31199366
0.16420066 -0.095766358 -0.31199181
0.16470136 -0.095730342 -0.31198883
0.16520016 -0.095652603 -0.31198236
0.16569781 -0.095573209 -0.3119761
0.1661955 -0.095505394 -0.31197083
0.16669267 -0.095431872 -0.31196514
0.14603704 -0.096879758 -0.31398931
0.14653952 -0.09684176 -0.31398618
0.14704145 -0.096796893 -0.31398255
0.14710112 -0.096767865 -0.31300676
0.14760214 -0.096733816 -0.31300363
0.14810252 -0.096691273 -0.31299984
0.14860344 -0.096654847 -0.31299666
0.14910437 -0.096617907 -0.31299353
0.14960562 -0.096582972 -0.3129907
0.15010677 -0.096546978 -0.3129878
0.15060781 -0.096508555 -0.31298482
0.15110908 -0.096472353 -0.31298211
0.15161106 -0.096443243 -0.31298009
0.15211318 -0.096415661 -0.31297821
0.15261474 -0.096381985 -0.312976
0.1536174 -0.096312538 -0.31297144
0.15411906 -0.09628211 -0.31296962
0.15462178 -0.096261822 -0.31296876
0.15465343 -0.096259043 -0.31199032
0.15515321 -0.096225664 -0.31198791
0.1556529 -0.09619087 -0.31198558
0.1561529 -0.09616366 -0.31198415
0.15665236 -0.096134558 -0.31198293
0.15867086 -0.09603481 -0.31099746
0.15916996 -0.096016005 -0.31099635
0.15966898 -0.095995873 -0.31099519
0.16016853 -0.095980458 -0.31099433
0.16066781 -0.095962286 -0.31099325
0.16116735 -0.095944464 -0.310992
0.16166694 -0.095923565 -0.31099042
0.16216618 -0.095899083 -0.31098863
0.16266544 -0.095873669 -0.31098676
0.16316576 -0.095849641 -0.31098452
0.16366543 -0.095822103 -0.3109822
0.16416554 -0.09578941 -0.31097934
0.16516981 -0.095679194 -0.31194675
0.16566852 -0.095579334 -0.31193775
0.16616546 -0.095510893 -0.31193247
0.1666618 -0.095438913 -0.31192681
0.14655551 -0.096799076 -0.31296352
0.14705734 -0.096769296 -0.31296119
0.14755897 -0.096735768 -0.31295872
0.14806004 -0.09669628 -0.31295571
0.1485606 -0.09665598 -0.31295243
0.14861767 -0.096696764 -0.31198281
0.14911635 -0.096653633 -0.31197914
0.14961511 -0.096611619 -0.31197554
0.15011427 -0.096572131 -0.31197226
0.15061422 -0.096536927 -0.31196964
0.15111405 -0.096499898 -0.3119669
0.15161435 -0.09646973 -0.31196472
0.15211481 -0.09643811 -0.31196272
0.15261555 -0.096408062 -0.31196105
0.15311575 -0.096374691 -0.311959
0.15361521 -0.096337296 -0.31195661
0.15411475 -0.096301235 -0.3119542
0.15461388 -0.096261285 -0.3119517
0.15511344 -0.096225709 -0.31194949
0.1556125 -0.096189 -0.31194815
0.15563835 -0.096210241 -0.31097353
0.15613504 -0.096171655 -0.31097177
0.1566328 -0.09614075 -0.31097043
0.15862322 -0.096031576 -0.31096551
0.15912314 -0.096013799 -0.31096488
0.15962303 -0.095995538 -0.31096441
0.16012341 -0.095980301 -0.31096402
0.16062331 -0.095961109 -0.31096292
0.16112371 -0.095941663 -0.31096137
0.16162573 -0.095924325 -0.31095883
0.16212659 -0.095901892 -0.31095642
0.16262607 -0.095874459 -0.31095421
0.16312934 -0.095850758 -0.31095073
0.16363163 -0.095824696 -0.31094721
0.16413461 -0.09579403 -0.31094339
0.16463533 -0.095736898 -0.31093785
0.16513354 -0.095672369 -0.31093279
0.16562946 -0.095615536 -0.31092945
0.16612582 -0.095555075 -0.31092525
0.14600743 -0.096820965 -0.31291828
0.14651005 -0.096796848 -0.31291667
0.14701298 -0.096770473 -0.31291524
0.1470729 -0.096789785 -0.31194377
0.14757332 -0.096763693 -0.31194183
0.14807341 -0.096732609 -0.31193957
0.14857346 -0.096699901 -0.31193724
0.14907271 -0.09665975 -0.31193447
0.14957167 -0.096617483 -0.31193125
0.1496225 -0.096656047 -0.31096122
0.15012029 -0.09662009 -0.3109583
0.150618 -0.096582331 -0.31095526
0.15111561 -0.096544214 -0.31095237
0.15161388 -0.096506633 -0.31094992
0.15211219 -0.096468464 -0.31094754
0.15261136 -0.096435584 -0.31094557
0.15357549 -0.096338578 -0.31191686
0.1540745 -0.096302405 -0.31191495
0.15457399 -0.096262924 -0.31191313
0.15507287 -0.096225761 -0.31191173
0.15509875 -0.096249357 -0.310938
0.15559404 -0.096208975 -0.31093746
0.15608995 -0.096171312 -0.31093693
0.1565879 -0.096142709 -0.31093666
0.15708287 -0.096108533 -0.31093621
0.15757768 -0.09607619 -0.31093574
0.15807545 -0.096051551 -0.31093511
0.15857531 -0.09603031 -0.31093362
0.15907635 -0.096014015 -0.31093299
0.15957695 -0.095996812 -0.31093326
0.16007778 -0.09597946 -0.31093293
0.16057897 -0.095960826 -0.3109321
0.16108073 -0.095942765 -0.31093079
0.16158432 -0.095923476 -0.31092712
0.16208619 -0.095901743 -0.31092405
0.16258661 -0.095876321 -0.3109217
0.16309291 -0.095852874 -0.31091687
0.1635974 -0.095824219 -0.31091219
0.1641034 -0.095794745 -0.31090739
0.16460636 -0.095739372 -0.3109009
0.16510552 -0.095678248 -0.31089598
0.16560055 -0.095621876 -0.31089318
0.14602765 -0.09685827 -0.31190184
0.14652801 -0.096827172 -0.31189954
0.14702733 -0.096792191 -0.31189653
0.14752793 -0.096765175 -0.31189483
0.14802845 -0.096734956 -0.31189311
0.14852883 -0.096702047 -0.31189147
0.14957635 -0.096654162 -0.31091437
0.15007533 -0.096621782 -0.31091258
0.15057327 -0.096583776 -0.31090993
0.15061617 -0.096612602 -0.30993891
0.15156911 -0.096505903 -0.31090569
0.15206848 -0.09647093 -0.31090415
0.15256818 -0.096435845 -0.31090271
0.15306662 -0.096398667 -0.31090152
0.15356518 -0.096362866 -0.31090093
0.15406452 -0.096330576 -0.31090078
0.15456104 -0.096291386 -0.31090125
0.15505552 -0.096250325 -0.31090114
0.15554973 -0.096211568 -0.31090209
0.15604419 -0.096172146 -0.31090271
0.15654112 -0.096142419 -0.31090286
0.15703568 -0.09611062 -0.31090373
0.15752932 -0.096077889 -0.31090391
0.1580265 -0.096052609 -0.31090358
0.15852739 -0.096031435 -0.31090209
0.15902926 -0.096013464 -0.31090105
0.15952972 -0.095995784 -0.31090128
0.1600327 -0.095979474 -0.31090158
0.16053502 -0.09596172 -0.31090099
0.16103795 -0.095945083 -0.31089994
0.16154297 -0.09592513 -0.31089577
0.16204467 -0.095900968 -0.31089279
0.16254711 -0.095877297 -0.31088969
0.16305603 -0.095855236 -0.31088299
0.16356322 -0.095826484 -0.31087747
0.16407171 -0.095793955 -0.31087142
0.16457705 -0.095739 -0.31086394
0.16507713 -0.095680751 -0.31085885
0.14698221 -0.096797481 -0.31184965
0.14748225 -0.096766219 -0.31184769
0.14798264 -0.096733868 -0.3118462
0.14848344 -0.096701853 -0.31184497
0.14908062 -0.096713312 -0.30989844
0.1495759 -0.096676245 -0.30989558
0.15007253 -0.096646123 -0.30989361
0.1505692 -0.096612737 -0.30989191
0.15106629 -0.096582562 -0.30989021
0.15156154 -0.096544459 -0.30988839
0.15205684 -0.09650249 -0.30988666
0.15302311 -0.096399024 -0.3108598
0.15352088 -0.096361428 -0.31086046
0.15402049 -0.096327506 -0.31086183
0.15451689 -0.096291713 -0.31086329
0.15501237 -0.096252546 -0.3108646
0.15550557 -0.096214049 -0.3108665
0.15599844 -0.096175812 -0.31086859
0.15649353 -0.096141823 -0.3108702
0.1569871 -0.096110053 -0.31087172
0.15748079 -0.096079268 -0.31087235
0.15797755 -0.0960529 -0.3108722
0.15847932 -0.096032128 -0.31087038
0.15898217 -0.096012399 -0.31086794
0.15948372 -0.095995344 -0.31086898
0.15998749 -0.095981553 -0.31087038
0.16049175 -0.095964476 -0.31086954
0.16099589 -0.095946908 -0.31086871
0.16150305 -0.095928304 -0.31086433
0.16200484 -0.09590365 -0.31086054
0.16250785 -0.095879495 -0.310857
0.16301879 -0.095854618 -0.31085017
0.16352847 -0.095825717 -0.31084371
0.14693594 -0.096798271 -0.31180188
0.14743611 -0.096764952 -0.31180027
0.14793634 -0.096733123 -0.31179878
0.14903368 -0.096716277 -0.30985013
0.14952889 -0.096679807 -0.30984783
0.15002528 -0.09664727 -0.30984604
0.15052235 -0.096614935 -0.30984488
0.15101922 -0.096584618 -0.30984342
0.15447111 -0.096289024 -0.31082568
0.15496598 -0.096251182 -0.31082901
0.15545897 -0.096213691 -0.31083128
0.15547992 -0.096231349 -0.30985686
0.15693763 -0.096110418 -0.31083989
0.15696481 -0.096136034 -0.30985489
0.15792793 -0.096053943 -0.31084114
0.14898589 -0.096717142 -0.30980134
0.14948176 -0.096682742 -0.30980003
0.149977 -0.096647032 -0.30979782
