# .PCD v0.7 - Point Cloud Data file format
VERSION 0.7
FIELDS x y z
SIZE 4 4 4
TYPE F F F
COUNT 1 1 1
WIDTH 1307
HEIGHT 1
VIEWPOINT 0 0 0 1 0 0 0
POINTS 1307
DATA ascii
0.034148857 0.0096649779 -0.71378368
0.034875028 0.0096079735 -0.7132529
0.035626244 0.0095470874 -0.71271563
0.03637711 0.0094939973 -0.71218091
0.037157565 0.0094490107 -0.71164721
0.037950266 0.0094008613 -0.71112394
0.038752731 0.0093546147 -0.71060282
0.039762285 0.0093989801 -0.70992541
0.040712323 0.0094795683 -0.70931792
0.041663229 0.009548286 -0.70869929
0.042521283 0.0094881421 -0.70819026
0.043483634 0.0095512606 -0.70761073
0.044535864 0.009685115 -0.70698202
0.045507155 0.009715436 -0.70643842
0.046383049 0.0096585648 -0.70596522
0.047372669 0.0096282875 -0.70544243
0.048252519 0.0096081225 -0.70499814
0.049240574 0.0095616281 -0.70452315
0.0501258 0.0095075257 -0.70410043
0.050994184 0.0094765918 -0.70370352
0.051868014 0.0094798692 -0.70330799
0.052734476 0.0094593028 -0.70293683
0.053622726 0.0095060701 -0.7025671
0.054476302 0.0095279058 -0.70221812
0.055333432 0.0094879866 -0.70189267
0.056118816 0.0095357308 -0.70159101
0.056913041 0.0095761986 -0.70129669
0.057712533 0.0095421653 -0.70101768
0.058523022 0.0095096519 -0.70074391
0.059309836 0.0094620157 -0.70048171
0.060087033 0.0095390743 -0.70021808
0.060862206 0.0095423087 -0.69996804
0.061691701 0.0096077891 -0.69970167
0.062566303 0.0096738879 -0.69941914
0.06351243 0.009686566 -0.69912529
0.064550363 0.0095628649 -0.69882882
0.065644324 0.0095828064 -0.69850981
0.066820301 0.0094467392 -0.69819778
0.068032421 0.0094060944 -0.69788313
0.069314748 0.0093746325 -0.69757104
0.070444107 0.0091197966 -0.69733715
0.071554936 0.0089965854 -0.69710869
0.072616905 0.0088970009 -0.6969012
0.073666625 0.0088164406 -0.69670504
0.074704945 0.0087431092 -0.69652104
0.075816341 0.0087086605 -0.69633019
0.0768684 0.0086596403 -0.69616187
0.078311637 0.0087549482 -0.69592899
0.079423502 0.0087285535 -0.69577235
0.080767907 0.0088015171 -0.69558328
0.08191292 0.0087818401 -0.69544274
0.083198115 0.0088489354 -0.69528484
0.084336042 0.0088416561 -0.69516355
0.085574016 0.0088963192 -0.69503427
0.08671321 0.0088792369 -0.69493228
0.08794491 0.0089339335 -0.69482207
0.089135244 0.0089941947 -0.69472378
0.090248086 0.0089843506 -0.69464695
0.091405846 0.0090445001 -0.69456542
0.092494071 0.0090366853 -0.69450223
0.093577102 0.009034628 -0.69444442
0.094704404 0.0090370318 -0.69439042
0.095726594 0.0089908503 -0.69435179
0.096808814 0.0089416504 -0.69431573
0.097959407 0.0088518756 -0.69428599
0.099196568 0.0087625515 -0.69425762
0.10046736 0.0086260559 -0.69423711
0.10178318 0.0084653441 -0.69421268
0.10307754 0.008304581 -0.69419575
0.10434391 0.0081642848 -0.69419354
0.10557142 0.0080243796 -0.69419312
0.10679495 0.0079509448 -0.69419301
0.10799935 0.0078907823 -0.69420773
0.10914689 0.0078921001 -0.69422328
0.11026228 0.0079279719 -0.69423705
0.11151461 0.0079127438 -0.69427508
0.1126138 0.0079556573 -0.69430894
0.11375193 0.0080296025 -0.69434643
0.11484668 0.0080825845 -0.69438779
0.11592048 0.0082003195 -0.69440079
0.11695814 0.0083397962 -0.69441497
0.11802023 0.0084431646 -0.69443792
0.1190701 0.0085694483 -0.69444883
0.12014543 0.0086538242 -0.69447267
0.12123347 0.0087183258 -0.69449484
0.12219775 0.008915863 -0.69448322
0.12350671 0.0087395636 -0.69454587
0.1244382 0.0089754025 -0.69452125
0.12557538 0.0089867907 -0.69454551
0.12671794 0.0089898193 -0.69458294
0.12762439 0.0092581734 -0.69456398
0.12875453 0.0092904363 -0.69461554
0.12964359 0.0095777111 -0.69460648
0.13050306 0.0098859435 -0.69459724
0.13162012 0.0099489903 -0.69466227
0.13273662 0.0099938251 -0.69472033
0.1341534 0.0096830428 -0.6948818
0.13527688 0.009709388 -0.69495898
0.13690968 0.0091594132 -0.69521493
0.13825768 0.0089477804 -0.69539022
0.13983493 0.0085082483 -0.69563937
0.14119874 0.0082993656 -0.69582063
0.14255747 0.0080957757 -0.69599897
0.14370234 0.0080975313 -0.69610435
0.14507467 0.0078692855 -0.69628519
0.14621635 0.0078585418 -0.69638807
0.14712237 0.0080747949 -0.69641048
0.14825979 0.0080524683 -0.6965124
0.14940925 0.0080262218 -0.69662344
0.15032646 0.0082287872 -0.6966536
0.15122645 0.0084297499 -0.69668591
0.15212427 0.0086340588 -0.69672149
0.15301679 0.0088454289 -0.69675761
0.15416297 0.008822252 -0.69689763
0.1550529 0.0090463283 -0.69694561
0.15594687 0.0092794476 -0.69699699
0.15709348 0.0092704389 -0.69716024
0.15799576 0.0095173949 -0.69721663
0.15890896 0.0097644851 -0.69727629
0.16006857 0.0097592976 -0.69745362
0.16122629 0.0097527942 -0.69763309
0.16237421 0.0097501334 -0.69780767
0.16351943 0.0097504565 -0.6979779
0.16466005 0.009751806 -0.69814169
0.16579723 0.009756132 -0.69830078
0.16693039 0.0097678378 -0.69845116
0.16805877 0.0097843381 -0.69859093
0.16919032 0.009802171 -0.69872773
0.17031278 0.0098344916 -0.69884771
0.17163616 0.0096196504 -0.69908392
0.17296208 0.0094278343 -0.69929534
0.17408521 0.0094944062 -0.6993624
0.17542921 0.0093401205 -0.69951344
0.17654498 0.0094248094 -0.69952607
0.17789458 0.0093115792 -0.69959605
-0.049806915 0.0095081301 -0.8203178
-0.048097003 0.0094956653 -0.81979537
-0.046976518 0.0094009088 -0.81939632
-0.045275971 0.0094103049 -0.81877249
-0.044691384 0.009249879 -0.81850106
-0.043013372 0.0092824046 -0.81779957
-0.042360108 0.0092024459 -0.81748044
-0.04073571 0.0092557669 -0.81671631
-0.039605465 0.0092588747 -0.81613368
-0.038472898 0.009285667 -0.81551749
-0.037391029 0.0093053197 -0.81489211
-0.035874479 0.0093842205 -0.81395328
-0.034894574 0.0093872081 -0.81329745
-0.033536557 0.0094204228 -0.81232917
-0.032236125 0.0094627943 -0.8113234
-0.030997697 0.0094640423 -0.81030267
-0.029421704 0.0094782216 -0.80891055
-0.028261354 0.0094583435 -0.80781972
-0.026717486 0.0094645629 -0.80629504
-0.025599694 0.009471084 -0.80513453
-0.024084173 0.0094871568 -0.80348909
-0.022592489 0.0094862245 -0.80179113
-0.020711958 0.0094582029 -0.79952866
-0.01886731 0.0093647968 -0.79716057
-0.017087791 0.0091468673 -0.79470432
-0.015801959 0.0089013353 -0.7927857
-0.013770892 0.0082094101 -0.78947574
-0.012163179 0.0077180942 -0.78659815
-0.010153725 0.0073041129 -0.78269738
-0.0089884279 0.0073578577 -0.78024673
-0.0074165766 0.0074733198 -0.77683133
-0.0062927492 0.0077499789 -0.7743426
-0.005197322 0.0080404719 -0.77194679
-0.0041480893 0.0083529921 -0.76969373
-0.0035467327 0.0085105775 -0.76842093
-0.0029783947 0.008637798 -0.76721853
-0.0024234958 0.0087173358 -0.76606655
-0.0015044776 0.0087941419 -0.76415056
-0.00057789905 0.00881973 -0.76224595
0.015959047 0.0094457809 -0.73161328
0.017404065 0.0093405647 -0.72961247
0.020196488 0.0091943135 -0.72620624
0.022870211 0.0095841298 -0.72334915
0.024766361 0.010198226 -0.72145218
0.025487227 0.010257597 -0.72079778
0.026343009 0.010550397 -0.71996933
0.027023857 0.010623902 -0.71935409
0.02770724 0.010774484 -0.71873248
0.028295649 0.010650854 -0.71826082
0.028892906 0.010560116 -0.71777779
0.02934189 0.01025416 -0.71745616
0.029813623 0.0099538788 -0.71712017
0.03027796 0.0096691186 -0.71679324
0.030726038 0.0094170878 -0.71647656
0.031376723 0.0093377447 -0.71597779
0.031824779 0.0091107422 -0.71565503
0.032291237 0.0088837706 -0.71532083
0.032769047 0.0086731259 -0.71499437
0.033456106 0.0086078346 -0.71446627
0.033958491 0.0084062954 -0.71412259
0.034667607 0.0083571775 -0.7135902
0.03539782 0.0083247283 -0.713063
0.036139935 0.008274015 -0.71253419
0.036876775 0.0082358988 -0.71200764
0.037692189 0.0081853252 -0.71147341
0.038763087 0.0082227252 -0.7107392
0.039547037 0.008184718 -0.71022564
0.040587317 0.0082413675 -0.70955974
0.041564703 0.0083096651 -0.70893729
0.042527203 0.0083722351 -0.70833588
0.043409504 0.0083120791 -0.70781636
0.044456393 0.0084735565 -0.70718014
0.045436095 0.0084981509 -0.70662832
0.046436556 0.0084823268 -0.70609295
0.047321405 0.0084370663 -0.70562315
0.04822021 0.0083846999 -0.70517713
0.04921066 0.0083479621 -0.70469451
0.050102234 0.0083265444 -0.70427006
0.050980702 0.0083178049 -0.70386672
0.05188369 0.0083532026 -0.70345718
0.052766208 0.0083805127 -0.70307356
0.053621039 0.0084002065 -0.70271677
0.054500233 0.0083360737 -0.70237201
0.05529476 0.0083825961 -0.70205766
0.056100812 0.0084043574 -0.70175076
0.056892544 0.0083679212 -0.70146078
0.057638071 0.0083660362 -0.7011984
0.058392756 0.0084370496 -0.70092124
0.059131116 0.0085120834 -0.70065737
0.059906591 0.0085072462 -0.70040143
0.060701694 0.0085032331 -0.70014143
0.06156487 0.0085217906 -0.69986564
0.062441893 0.0085213603 -0.69959074
0.063396871 0.0085379938 -0.69929117
0.064486854 0.0085179778 -0.69896644
0.065618262 0.0083922949 -0.69865257
0.066835031 0.0083768675 -0.69831491
0.068070613 0.0081939436 -0.69801146
0.069299564 0.0081086438 -0.6977191
0.0704818 0.0079986528 -0.69745678
0.071580544 0.0078967968 -0.69722855
0.072642237 0.00781134 -0.69701898
0.07370612 0.0077546276 -0.69681668
0.074735843 0.0076957834 -0.69663239
0.07586284 0.0076901754 -0.69643521
0.077243485 0.0077473279 -0.69620329
0.078344457 0.007728531 -0.69603819
0.079688735 0.007790105 -0.69583881
0.080776609 0.0077822716 -0.69569564
0.082093112 0.0078317085 -0.6955263
0.083234198 0.0078175282 -0.69539577
0.084350951 0.0077997823 -0.69527793
0.085594222 0.0078613516 -0.69514692
0.086737953 0.0078490749 -0.69504517
0.087950766 0.0078965193 -0.69493902
0.089069895 0.0078930054 -0.69485414
0.090235926 0.0079456642 -0.69476664
0.091332458 0.0079436991 -0.69469577
0.092429213 0.007966904 -0.69462818
0.093522675 0.0079638204 -0.69457
0.094632894 0.0079533746 -0.69451809
0.095685393 0.007967608 -0.69446802
0.096855961 0.007910762 -0.69442868
0.098018184 0.0078400103 -0.69439608
0.099312574 0.0077326363 -0.69436604
0.10058599 0.0076115485 -0.69434237
0.10190509 0.0074277497 -0.69431728
0.10324281 0.0073071704 -0.6942994
0.10451225 0.007175704 -0.69430244
0.10571287 0.0070826118 -0.6942969
0.10694048 0.0069500329 -0.69430649
0.10813434 0.0068885307 -0.69432813
0.10925286 0.0069098603 -0.6943444
0.11041324 0.0069056493 -0.6943807
0.11154582 0.0069397488 -0.6944114
0.11269086 0.0069805244 -0.69444948
0.11378444 0.0070335567 -0.69448793
0.11489198 0.0071043889 -0.69451123
0.11591779 0.00724121 -0.69452852
0.11699791 0.0073102647 -0.69456023
0.11799578 0.0074668806 -0.69457775
0.11903528 0.0075874096 -0.69459093
0.12011389 0.0076661156 -0.69462025
0.12119547 0.0077365739 -0.69464266
0.12231517 0.0077704876 -0.69467306
0.12344837 0.0077857324 -0.69470358
0.12437461 0.0080249058 -0.69468653
0.12551136 0.0080360528 -0.69472003
0.12665905 0.0080403127 -0.69476086
0.12756591 0.0083093289 -0.69474971
0.12846598 0.0085559878 -0.69474131
0.12932996 0.0088274395 -0.69474185
0.13044021 0.0089239785 -0.69478238
0.13155869 0.0090058446 -0.69484603
0.1327043 0.009024879 -0.69491088
0.13412955 0.0087063313 -0.69508374
0.13553067 0.0084084561 -0.69524825
0.13688889 0.0081687691 -0.69543248
0.13823599 0.0079558045 -0.69561219
0.13980635 0.0075116931 -0.69587058
0.14139429 0.0070701744 -0.69613445
0.14252882 0.0070801252 -0.69624335
0.14390405 0.006850455 -0.69643098
0.14504732 0.0068392684 -0.69653976
0.14619312 0.0068232459 -0.69664854
0.14732717 0.0068007424 -0.69675529
0.14824833 0.0070060734 -0.69678497
0.14940096 0.0069745579 -0.69690138
0.15055609 0.006943142 -0.6970228
0.15146269 0.0071509206 -0.69705874
0.15236613 0.0073542916 -0.69710124
0.15326242 0.0075645554 -0.6971451
0.15415472 0.0077797831 -0.69719362
0.15504573 0.0080052828 -0.69724411
0.15619093 0.0079882154 -0.69740963
0.15708399 0.0082266266 -0.69746989
0.15798636 0.0084722126 -0.69753158
0.15889655 0.0087238653 -0.69759494
0.1600606 0.0087145362 -0.69778222
0.1612208 0.008703908 -0.69797295
0.16214901 0.0089643206 -0.69803452
0.16329882 0.0089653349 -0.69821382
0.1644451 0.0089692064 -0.69838762
0.16558971 0.0089739095 -0.69855589
0.16673015 0.00897869 -0.69871575
0.16786988 0.0089842575 -0.69887203
0.16900018 0.0090022609 -0.69901317
0.17032428 0.00877239 -0.69927406
0.1714396 0.0088097956 -0.69938999
0.17276217 0.0086099887 -0.69960839
0.17387088 0.0086791078 -0.69968253
0.17542861 0.0082974117 -0.69993979
0.17653365 0.008391819 -0.69994825
0.17788431 0.0082607633 -0.70002383
-0.047723778 0.0085996566 -0.81941056
-0.04667569 0.0084248446 -0.81901819
-0.045582343 0.0082969759 -0.81860065
-0.044493206 0.0081726797 -0.81816077
-0.043376721 0.0080783553 -0.81768703
-0.042245116 0.0080091311 -0.81719595
-0.041137975 0.0079420228 -0.81668282
-0.040012371 0.007903588 -0.81613386
-0.038892619 0.0078816768 -0.81555641
-0.037352625 0.007923563 -0.81471235
-0.036282219 0.0079150675 -0.81407833
-0.035241526 0.0079003396 -0.81342202
-0.033406962 0.0080235908 -0.81217563
-0.032063354 0.0080510089 -0.81117022
-0.031178121 0.008027954 -0.8104648
-0.029530514 0.0080689779 -0.80906463
-0.028316537 0.0080795037 -0.80795538
-0.026731195 0.0081033418 -0.80641592
-0.025604082 0.0081052883 -0.80525994
-0.024052877 0.0081621241 -0.80358189
-0.022532381 0.0082004834 -0.80184078
-0.020642705 0.0081971698 -0.79954916
-0.018790647 0.0081335213 -0.79714769
-0.017001802 0.0079773357 -0.79464883
-0.01490263 0.0074568954 -0.79144746
-0.013272316 0.0069347229 -0.78870964
-0.011672884 0.006482231 -0.78581363
-0.0096759163 0.0061174454 -0.78188592
-0.0080949515 0.0061115255 -0.77852821
-0.0069661713 0.0063170944 -0.77603608
-0.0058668493 0.0065641282 -0.77360147
-0.0043482585 0.0069525125 -0.77029133
-0.0037260384 0.0071411715 -0.76895463
-0.0031314325 0.0072848778 -0.7676934
-0.0025498348 0.0074068098 -0.76646936
-0.0016068921 0.0075352611 -0.76450568
-0.0010591933 0.0075748176 -0.76338106
-0.00010657455 0.0076042674 -0.76145262
0.017212665 0.0083099958 -0.73011041
0.018723691 0.0080486741 -0.72818011
0.021572869 0.0080342591 -0.72493374
0.024015861 0.0086902212 -0.72242057
0.025072662 0.0089144576 -0.72143137
0.026003862 0.0092210164 -0.72053695
0.026720913 0.009314077 -0.71989071
0.027396759 0.0094018551 -0.71927392
0.028131178 0.0095266625 -0.71861392
0.028734172 0.0094151134 -0.71813464
0.029353235 0.0093231993 -0.71762931
0.029828954 0.0089592449 -0.71728456
0.030274015 0.008663455 -0.71696663
0.030730411 0.0083858622 -0.71664959
0.031187408 0.0081192683 -0.71632326
0.03163657 0.0078679686 -0.71599537
0.032294456 0.007803434 -0.71548927
0.032767538 0.0075797387 -0.7151531
0.033249132 0.0073607648 -0.71480066
0.0339594 0.0073027313 -0.71427393
0.034675732 0.0072552147 -0.71374315
0.035394594 0.0072083538 -0.71321285
0.036130376 0.0071721659 -0.71269608
0.036865462 0.0071454174 -0.71217275
0.037655208 0.0070824013 -0.71162862
0.038473886 0.0070202057 -0.7110855
0.039306629 0.0069636106 -0.71053553
0.040376291 0.0070160669 -0.70983714
0.041435037 0.007063603 -0.70916593
0.042419214 0.0071386965 -0.70854837
0.043400396 0.0072045876 -0.70795232
0.044294886 0.0071424474 -0.70743459
0.045285359 0.007187882 -0.70686942
0.046286516 0.0072134705 -0.70631838
0.047288787 0.0072232201 -0.70579749
0.048302092 0.0072083944 -0.70528817
0.049191859 0.0071886429 -0.70485723
0.050104778 0.0071722236 -0.70441902
0.051020958 0.007177704 -0.70400089
0.051932666 0.0071739024 -0.70359606
0.052799124 0.0071857986 -0.70322436
0.053658549 0.0071978699 -0.70286727
0.054457527 0.0072372924 -0.70254058
0.055294592 0.0071665328 -0.70222133
0.056083318 0.0071114562 -0.70192534
0.056805696 0.0072037568 -0.70164335
0.057532553 0.0071992502 -0.701379
0.05827149 0.0072798594 -0.70110339
0.058974627 0.0073014908 -0.70085651
0.059751645 0.0073730983 -0.70058358
0.060521342 0.0073750513 -0.70032281
0.061393667 0.0074171615 -0.70003855
0.06227614 0.0074366792 -0.69975775
0.063300245 0.0074210116 -0.6994409
0.064429231 0.0073676347 -0.69910812
0.065620095 0.0072633075 -0.69877523
0.06683591 0.0071576154 -0.69844949
0.068123363 0.0070983106 -0.69812036
0.069358997 0.0069951378 -0.69782746
0.07051596 0.0068837432 -0.69757342
0.07160949 0.0067990371 -0.69734424
0.072667815 0.0067329239 -0.69713253
0.073730104 0.006688769 -0.69692832
0.074766517 0.006634945 -0.69674259
0.075887971 0.006633847 -0.6965459
0.077272117 0.0066926982 -0.69631404
0.078382917 0.0066790674 -0.69614482
0.079485647 0.0066911713 -0.69598484
0.080808744 0.0067282291 -0.69580388
0.081989139 0.0067523466 -0.69565398
0.083253406 0.0067808214 -0.69550467
0.084493302 0.0068210857 -0.69536787
0.085609496 0.0068170023 -0.69525778
0.086741053 0.0068379841 -0.69515288
0.087978452 0.0068616839 -0.69504726
0.089050218 0.0068880906 -0.69496191
0.090168111 0.0069100256 -0.69488072
0.091272943 0.0069385604 -0.69480711
0.092443585 0.0069227577 -0.6947391
0.093451202 0.0069749402 -0.69468015
0.094593786 0.0069533298 -0.69462478
0.09572266 0.0069162175 -0.69457775
0.096902654 0.0068842489 -0.69453377
0.098092958 0.0067906459 -0.69450122
0.099398866 0.0066855084 -0.69447029
0.10070169 0.0065641291 -0.69444132
0.10199876 0.0064279707 -0.69441533
0.1033843 0.0062933229 -0.69439894
0.10464812 0.0061776382 -0.69440359
0.10584033 0.0061213006 -0.69439459
0.10699357 0.0060442691 -0.69440645
0.10825279 0.0059176697 -0.69444311
0.10936345 0.0059104417 -0.69447285
0.110521 0.0059134625 -0.69451243
0.11161206 0.0059726834 -0.69454294
0.11274932 0.0059827301 -0.69457698
0.11384243 0.0060444153 -0.69461364
0.11491155 0.0061126375 -0.69464445
0.11596233 0.0062086079 -0.6946696
0.11698955 0.0063252607 -0.69469273
0.11803761 0.0064242315 -0.69472533
0.11901806 0.0065695713 -0.69473046
0.12008134 0.0066573205 -0.69475824
0.12115645 0.0067382297 -0.69480139
0.12226758 0.0067831478 -0.69483805
0.12339863 0.0068013673 -0.69487005
0.12432643 0.0070236446 -0.6948716
0.12545353 0.0070707323 -0.69490778
0.12660776 0.0070675453 -0.69494653
0.12751438 0.0073270053 -0.69494003
0.12841253 0.0075597842 -0.69493711
0.12925678 0.0078253495 -0.69493067
0.13037257 0.0079067899 -0.69497818
0.13152319 0.0079979626 -0.69503278
0.13298096 0.0076920823 -0.69519895
0.13412231 0.0077040689 -0.69529057
0.13552392 0.0074022203 -0.69546425
0.13687517 0.007171886 -0.69564617
0.1382152 0.0069618216 -0.69582969
0.13978228 0.0065179504 -0.69609904
0.14136361 0.0060674748 -0.6963678
0.14272748 0.0058401101 -0.6965605
0.14388375 0.0058275554 -0.69667763
0.14524762 0.0055826912 -0.69686955
0.14617433 0.005797578 -0.69690424
0.14730993 0.005767683 -0.69701725
0.1484651 0.0057327282 -0.69713616
0.14938937 0.0059402967 -0.69717318
0.1505492 0.0058997311 -0.6973024
0.15145691 0.0061042863 -0.69734317
0.15235807 0.0063133114 -0.69738764
0.15325023 0.00653008 -0.69743359
0.15414308 0.0067446311 -0.69748521
0.15529424 0.0067167813 -0.69765025
0.15618499 0.0069459071 -0.69771302
0.15707432 0.0071866768 -0.69777662
0.15797479 0.0074288077 -0.69784302
0.15888159 0.007681841 -0.69791222
0.16004637 0.0076717334 -0.69810683
0.16097812 0.0079225069 -0.69818395
0.16214177 0.0079155946 -0.69837856
0.16329361 0.0079169944 -0.69856828
0.16443883 0.0079189884 -0.69875151
0.16558748 0.0079203388 -0.69893169
0.16673133 0.0079235593 -0.6991021
0.16787431 0.0079270164 -0.69926989
0.16900814 0.0079413634 -0.69942415
0.17032962 0.0077104024 -0.69968951
0.17144381 0.0077481074 -0.69980508
0.1727585 0.0075668874 -0.70002079
0.17408818 0.007390914 -0.70020193
0.17543241 0.0072349184 -0.70035458
0.17652828 0.007342251 -0.70036185
-0.046891768 0.0074128192 -0.81883818
-0.045838252 0.0072284401 -0.81844002
-0.044774521 0.0070691132 -0.81802595
-0.043098912 0.0070609152 -0.81736922
-0.042028438 0.0069333743 -0.81689972
-0.040943116 0.0068257721 -0.81640023
-0.040402103 0.0066144112 -0.81611842
-0.039286867 0.0065497356 -0.81556767
-0.037728082 0.0065724039 -0.81476343
-0.036153581 0.0066301087 -0.81387389
-0.035129622 0.0065862741 -0.8132444
-0.033706456 0.0066085444 -0.81231368
-0.032304801 0.006636539 -0.81132197
-0.030942455 0.0066679753 -0.81027687
-0.029632824 0.0066911629 -0.80919689
-0.028407469 0.0066999067 -0.80811477
-0.026753288 0.0067763994 -0.80654466
-0.025582546 0.0067760302 -0.80536389
-0.024031967 0.0068268166 -0.80370301
-0.022480665 0.0068954588 -0.80193216
-0.020573448 0.0069255345 -0.79959565
-0.018709032 0.0068936967 -0.79715186
-0.016916836 0.0067739892 -0.79462725
-0.014808677 0.0063256305 -0.79138499
-0.012780439 0.0056789611 -0.78795767
-0.011199231 0.0052815448 -0.7850548
-0.0092083998 0.0048943195 -0.78109562
-0.0076456042 0.0048990673 -0.77775162
-0.0065146061 0.0051120892 -0.77524334
-0.0049978816 0.0054192888 -0.77189618
-0.0039225728 0.005725712 -0.76955676
-0.0032974568 0.0058880607 -0.768215
-0.002701109 0.0060432325 -0.76694787
-0.0013240734 0.0062978049 -0.76408517
-0.0011552968 0.0062971548 -0.76374179
-0.0001813776 0.0063823452 -0.76178241
0.00079263875 0.0064208307 -0.75986695
0.0051977332 0.0064060618 -0.75138265
0.0088119796 0.0062146909 -0.74479711
0.016459186 0.0071252212 -0.73141563
0.018027807 0.0071114395 -0.72927409
0.022885192 0.0070356312 -0.72378743
0.024333391 0.0073850071 -0.72236127
0.025590606 0.0078206193 -0.72113478
0.026545027 0.0081233643 -0.72024548
0.027233187 0.0082472684 -0.71961683
0.027975287 0.0083371419 -0.71896064
0.028566232 0.0082419235 -0.71847796
0.029188814 0.0081044529 -0.71797746
0.029631376 0.0077723004 -0.71764922
0.030099286 0.0074348743 -0.71730936
0.030561831 0.0071294662 -0.7169832
0.030998057 0.0068676793 -0.71666652
0.031437542 0.0066166297 -0.71634167
0.031890709 0.0063786567 -0.71600646
0.032562122 0.0063175294 -0.71548563
0.033002492 0.0061170058 -0.71516705
0.033679113 0.0060934303 -0.71464592
0.034087125 0.0059580719 -0.71435237
0.034801479 0.0059140869 -0.71381092
0.035564791 0.0058687706 -0.71325749
0.036614005 0.0059219482 -0.71249145
0.037390642 0.005878489 -0.71194065
0.038180888 0.0058334139 -0.71141136
0.039267775 0.0058858553 -0.71068025
0.040090904 0.0058380323 -0.71014321
0.041220475 0.0058708331 -0.7094273
0.042102139 0.0058132913 -0.70888746
0.043294925 0.0059790108 -0.70815086
0.044302132 0.006024044 -0.70755768
0.045229815 0.0059700771 -0.70704031
0.046241809 0.0060131806 -0.70649284
0.047247827 0.0060289889 -0.70596057
0.048271362 0.0060347319 -0.70544451
0.049196411 0.0060170069 -0.70499355
0.050159447 0.0059932577 -0.70455456
0.05109749 0.0060371053 -0.70411885
0.051975746 0.0060447417 -0.70372921
0.052831203 0.0060511618 -0.70336074
0.053657416 0.005992 -0.70303124
0.054460034 0.0060282522 -0.70269608
0.055280626 0.0059487047 -0.70238143
0.056003164 0.006030302 -0.70208943
0.056683533 0.0061211046 -0.70181912
0.057424273 0.006111735 -0.70154917
0.058083363 0.0061358516 -0.70130402
0.058805116 0.006226962 -0.70103931
0.059561692 0.0063170805 -0.70076525
0.060336467 0.0063244966 -0.70049757
0.06118872 0.0063220393 -0.70022231
0.062120352 0.0063525732 -0.69991678
0.063191585 0.0062803575 -0.69959342
0.064400442 0.0062732175 -0.69923204
0.065621451 0.0060571237 -0.69890016
0.066913567 0.0059703626 -0.69855613
0.067868255 0.0056234896 -0.69834131
0.068840683 0.005520842 -0.69810915
0.070253491 0.0056170435 -0.69776821
0.071633168 0.0056912657 -0.69745862
0.072691262 0.0056405808 -0.69724536
0.073752172 0.0056036157 -0.69704098
0.074830189 0.0056027402 -0.69684124
0.075891554 0.0055933581 -0.69665539
0.07700751 0.0055962186 -0.69647115
0.078389242 0.0056451852 -0.69625258
0.079497859 0.0056617241 -0.69609094
0.080857754 0.0057002231 -0.69590384
0.082010344 0.0057392931 -0.69575572
0.083268434 0.0057552652 -0.69560772
0.0845026 0.0057776514 -0.6954729
0.085630618 0.0057976684 -0.69535935
0.086765595 0.005841732 -0.69525158
0.087846987 0.0058791931 -0.69515699
0.08904966 0.0058725099 -0.69506365
0.090157405 0.0059059518 -0.69498181
0.091288932 0.0059233084 -0.69490719
0.092385858 0.0059373067 -0.69484067
0.093484506 0.0059388964 -0.69478089
0.094656721 0.0058994326 -0.69472677
0.095738582 0.0059433035 -0.69467127
0.096978016 0.0058480338 -0.69463146
0.098206103 0.0057585896 -0.69459701
0.099529207 0.0056726937 -0.69456339
0.1008468 0.0055298139 -0.69453222
0.10216466 0.0054032863 -0.69450879
0.10350324 0.005309673 -0.69449455
0.1047655 0.0051723537 -0.69449329
0.10597773 0.0051620188 -0.69449365
0.10712127 0.0050790915 -0.69451416
0.10836203 0.0049559157 -0.69454932
0.10945429 0.0049604708 -0.694583
0.11057249 0.0049733445 -0.69463181
0.11167246 0.0049863248 -0.69467258
0.11278429 0.005006379 -0.69470567
0.11386283 0.0050554266 -0.69474196
0.11491054 0.0051153884 -0.69476825
0.11590421 0.00524869 -0.69479364
0.11695811 0.0053315922 -0.69482166
0.11801109 0.0054140831 -0.6948508
0.11897833 0.0055552274 -0.69486868
0.12005962 0.0056156213 -0.69490772
0.1211259 0.0057021817 -0.69495112
0.12223117 0.0057545607 -0.69500268
0.12335241 0.005799748 -0.69503886
0.12429704 0.0059655355 -0.69504845
0.12541378 0.0060348175 -0.69509226
0.1263271 0.0062350021 -0.69509131
0.12747009 0.0063064522 -0.69513631
0.12835267 0.0065262113 -0.69513696
0.12916403 0.0068443818 -0.69511366
0.13031879 0.0068814061 -0.69517571
0.13182096 0.006671994 -0.69532007
0.13296907 0.0066749421 -0.6953972
0.1343789 0.0063679549 -0.69558066
0.13573261 0.006141698 -0.69575465
0.1370732 0.0059361495 -0.69593787
0.13841651 0.005728987 -0.69613415
0.13998535 0.0052878554 -0.69640303
0.14134902 0.0050649778 -0.69660014
0.14270738 0.004837201 -0.69679469
0.14385888 0.0048239827 -0.69691551
0.14523306 0.0045630015 -0.69711614
0.14638443 0.0045291176 -0.69723874
0.14752375 0.0045017428 -0.69735861
0.14845623 0.0047015711 -0.69740152
0.14961718 0.0046573784 -0.69753259
0.15053827 0.0048616165 -0.69757724
0.15169688 0.0048208428 -0.69771838
0.15259719 0.0050377427 -0.69776624
0.15323833 0.0054978002 -0.69771892
0.15412872 0.0057158517 -0.69777399
0.15528165 0.0056860144 -0.69794351
0.15617217 0.0059123477 -0.69801193
0.15706165 0.0061506652 -0.6980809
0.15796018 0.0063882521 -0.69815391
0.15886463 0.0066381739 -0.69822866
0.16003153 0.0066275587 -0.69843024
0.16095802 0.0068798512 -0.69851369
0.16212291 0.0068716845 -0.69871551
0.16327955 0.0068679689 -0.69891804
0.16420808 0.0071368404 -0.69898391
0.16536808 0.0071309214 -0.69917363
0.16652143 0.0071302899 -0.69935751
0.16767065 0.0071302927 -0.69953489
0.16900347 0.0068902047 -0.69981724
0.17032145 0.0066607432 -0.70008123
0.17143358 0.0067027519 -0.70020437
0.17297317 0.0062583885 -0.70053244
0.17408678 0.0063278209 -0.70060331
0.17542353 0.0061889598 -0.70073599
0.17677334 0.0060632415 -0.7008239
0.17784359 0.0061839018 -0.70079255
0.1791624 0.0061028185 -0.70078897
-0.045440812 0.0063535725 -0.8181197
-0.044402126 0.0061663324 -0.81770825
-0.043350972 0.005972377 -0.81727028
-0.042277165 0.0058077886 -0.81680965
-0.04121577 0.0056546568 -0.81633341
-0.04014235 0.0055336747 -0.81583041
-0.039093036 0.005408016 -0.81531352
-0.0380366 0.0053140377 -0.81477064
-0.036485482 0.0053246985 -0.81393343
-0.035460763 0.0052413284 -0.81332856
-0.033970803 0.0052727959 -0.81240231
-0.032544948 0.0052799094 -0.81143993
-0.03162637 0.0052177073 -0.81077629
-0.029789841 0.0053305817 -0.80935168
-0.028483091 0.00535858 -0.80824256
-0.026771402 0.0054344973 -0.80666864
-0.025579525 0.0054723108 -0.80548769
-0.023987042 0.005518788 -0.80380696
-0.022872597 0.0055701411 -0.80255371
-0.020935435 0.0056430269 -0.80021542
-0.019058913 0.0056615868 -0.79777676
-0.016830502 0.0055462904 -0.79463357
-0.014712906 0.0051870886 -0.7913512
-0.012679405 0.0046139238 -0.78791356
-0.01069321 0.0040293476 -0.78423381
-0.0091499938 0.003739632 -0.78114885
-0.0071768002 0.0036870085 -0.77692276
-0.0060794498 0.0038824712 -0.77449608
-0.0045575453 0.0041814651 -0.77114469
-0.0034842752 0.004481642 -0.76881051
-0.0024590238 0.0047512623 -0.76661825
-0.0018436952 0.0048810709 -0.76533455
-0.00084827788 0.0050530331 -0.76330388
-0.00028115013 0.0051248982 -0.76217389
0.00030894249 0.0051617003 -0.76101673
0.0013077654 0.0052023921 -0.7590977
0.002340253 0.0052191541 -0.75714242
0.0038172968 0.0052358317 -0.75433177
0.0058032107 0.0051110215 -0.75058883
0.0083822776 0.0049223676 -0.745924
0.023778651 0.0060213301 -0.72309124
0.025120167 0.0064206822 -0.72178334
0.026117796 0.0067115193 -0.72084171
0.027067186 0.0070048054 -0.71994758
0.027802158 0.0070893946 -0.71930122
0.028411416 0.0069805724 -0.71879613
0.028994968 0.0068905544 -0.71831447
0.02946597 0.0065334965 -0.71797729
0.029904362 0.0062111723 -0.71764427
0.030342208 0.0059231706 -0.71732634
0.030774191 0.0056449682 -0.71700191
0.031210847 0.0053882166 -0.71668577
0.031651877 0.0051423148 -0.71636248
0.032051235 0.0049692495 -0.71606141
0.032705367 0.0049538794 -0.71554661
0.03307778 0.0048075351 -0.71526712
0.033775464 0.0047676894 -0.71473104
0.034498237 0.0047271508 -0.71418005
0.035238404 0.0046835011 -0.71363062
0.036282204 0.0047510788 -0.71284986
0.037060633 0.0047088438 -0.71229756
0.037878856 0.0046558278 -0.71174002
0.038715247 0.0045920317 -0.71117204
0.039811213 0.0046557882 -0.71044338
0.040945832 0.0046957117 -0.70971924
0.04184432 0.0046334048 -0.70916939
0.04298741 0.0046647605 -0.70847666
0.044133477 0.0046981061 -0.70780635
0.045173299 0.0047580567 -0.70720756
0.046217084 0.0048015821 -0.70664775
0.047264632 0.0048264302 -0.7060892
0.048289824 0.0047375499 -0.70558774
0.049267184 0.004806303 -0.70510983
0.050215442 0.0047611473 -0.70467722
0.051118039 0.0048487959 -0.70426261
0.051994953 0.0048421542 -0.70387506
0.052823372 0.0048526679 -0.70351154
0.053669859 0.0047586933 -0.7031734
0.05444954 0.0048126592 -0.70285106
0.055175863 0.0047717956 -0.70256066
0.055921804 0.0049376916 -0.70224702
0.056566197 0.004963086 -0.70199728
0.057167102 0.0050261132 -0.70176804
0.057885546 0.0051105199 -0.70149142
0.058629636 0.0051566926 -0.70121902
0.059334818 0.0052237231 -0.70096236
0.06011482 0.0052439976 -0.70069057
0.060990565 0.0052356129 -0.70039672
0.061984275 0.0052397042 -0.70007414
0.063109338 0.005132677 -0.69972962
0.06438937 0.0050039492 -0.6993587
0.065508403 0.004596272 -0.69907725
0.066486999 0.0044339621 -0.69882137
0.067902468 0.0045378832 -0.69844395
0.068271466 0.004293262 -0.69837511
0.070282243 0.0045180335 -0.69787639
0.071291745 0.0044653793 -0.69765854
0.072334617 0.0044625178 -0.69743955
0.073759794 0.0045203459 -0.69715267
0.074816644 0.0045254398 -0.69695592
0.075913303 0.0045432094 -0.69676131
0.077007055 0.0045639314 -0.69657689
0.078183755 0.0046090749 -0.69638842
0.079541184 0.0046368032 -0.69618851
0.080872722 0.0046729809 -0.69600517
0.082029402 0.0047058184 -0.69585705
0.083279461 0.0047404054 -0.6957075
0.084392898 0.004787208 -0.69558263
0.085627191 0.0047890577 -0.69545859
0.086762793 0.0048264065 -0.69535017
0.087833524 0.0048741819 -0.69525433
0.088980213 0.0049375477 -0.69515783
0.09017396 0.0048744767 -0.69507849
0.091289505 0.0048976843 -0.69500387
0.092393942 0.0049003996 -0.694938
0.093515754 0.0048970408 -0.69487673
0.094692916 0.0048517114 -0.69482177
0.095819123 0.004876235 -0.69476748
0.097072817 0.004786199 -0.69472766
0.098309949 0.0047219847 -0.6946891
0.099647276 0.0046388567 -0.69465566
0.10093933 0.0044648694 -0.69462901
0.10226786 0.0043991362 -0.69459647
0.10362748 0.0042703948 -0.69459105
0.10487112 0.0041522603 -0.69458342
0.10607957 0.0041708294 -0.6945917
0.10722794 0.0041202251 -0.69461828
0.10842562 0.0039987182 -0.69465828
0.10951767 0.0039790659 -0.69470531
0.11062422 0.0039650672 -0.69475305
0.11172638 0.0039956742 -0.6947968
0.11281545 0.0039971867 -0.69482905
0.11386624 0.0040567075 -0.69485933
0.11491615 0.0041140341 -0.69488531
0.11588569 0.0042341333 -0.69490939
0.1169365 0.0043005105 -0.69494331
0.1178849 0.0044312123 -0.69496965
0.11895233 0.0045056231 -0.6950019
0.12001976 0.0045741145 -0.69504541
0.12111027 0.0046301503 -0.69510049
0.12221099 0.0046858611 -0.69516414
0.12332725 0.0047420398 -0.69521654
0.12425969 0.0049057161 -0.69522864
0.12538418 0.0049661729 -0.69527948
0.12652054 0.0050215158 -0.69532412
0.12742238 0.00524094 -0.69532907
0.12827265 0.0054973215 -0.6953212
0.12945952 0.0055466811 -0.69538361
0.13063684 0.0055817435 -0.69544762
0.13207065 0.0053148181 -0.69559884
0.1332299 0.0053141778 -0.69568247
0.13458407 0.0050979732 -0.69586188
0.13592726 0.0048962329 -0.69604021
0.13705863 0.0049226135 -0.69614959
0.13840584 0.0047181249 -0.69635487
0.13996825 0.0042810086 -0.69662756
0.14133298 0.0040622326 -0.69682652
0.14269412 0.0038334832 -0.69702637
0.14407675 0.0035761851 -0.69723201
0.14522749 0.0035473162 -0.69735974
0.14637405 0.0035239749 -0.69748402
0.14752255 0.0034757424 -0.69761461
0.14868559 0.0034230263 -0.69775182
0.1496051 0.0036380154 -0.69779557
0.15077084 0.0035792601 -0.69794196
0.15169044 0.003790475 -0.69799334
0.15258628 0.0040073041 -0.69804567
0.15348177 0.0042237635 -0.69810277
0.1541087 0.0046953377 -0.69805747
0.15526462 0.0046587829 -0.69823283
0.15615527 0.0048841489 -0.69830543
0.15704699 0.0051143216 -0.69838142
0.15794002 0.0053524608 -0.69845849
0.15884362 0.0055949204 -0.69853956
0.16001071 0.0055793109 -0.69875032
0.16093589 0.005829975 -0.69883966
0.16210128 0.0058228318 -0.69904983
0.16303831 0.0060778214 -0.69913465
0.16420285 0.0060744099 -0.69934076
0.16536509 0.0060687335 -0.69954038
0.16652302 0.0060611856 -0.69973445
0.16767102 0.0060633174 -0.69991869
0.16899358 0.0058320472 -0.70020097
0.17031087 0.0056099319 -0.70046055
0.17142211 0.0056493822 -0.7005862
0.1729683 0.0051960386 -0.70090568
0.17407078 0.0052811592 -0.70096731
0.17540966 0.0051383642 -0.70109415
0.17674899 0.0050200745 -0.70117164
0.17809249 0.0049183932 -0.70119894
-0.044525892 0.0051368871 -0.81756777
-0.043518156 0.0049086763 -0.81715447
-0.042493515 0.0047120857 -0.81672299
-0.041453391 0.0045270748 -0.81626338
-0.040414497 0.004367311 -0.81578779
-0.039369769 0.0042151799 -0.81528753
-0.038325377 0.0040811645 -0.81476307
-0.037299428 0.0039543104 -0.81422251
-0.035204742 0.004090284 -0.8130675
-0.034241818 0.003973044 -0.81247377
-0.032777019 0.0039720214 -0.81152582
-0.031852793 0.0038896892 -0.81088424
-0.030470731 0.0039088973 -0.80987316
-0.029124007 0.003934145 -0.8088125
-0.027838616 0.0039369501 -0.80772716
-0.026093399 0.0040532188 -0.80611521
-0.024453485 0.004138493 -0.80446184
-0.022837762 0.0042489287 -0.80268264
-0.020854076 0.0043587754 -0.80030215
-0.018964043 0.0044131633 -0.79782575
-0.01716332 0.0043694419 -0.79528445
-0.014605297 0.0040341862 -0.79132509
-0.012579514 0.0035320122 -0.78787357
-0.010621975 0.0029273224 -0.78425807
-0.0090720737 0.002597481 -0.78115833
-0.0071422816 0.0025274188 -0.77703792
-0.0056125079 0.0026309302 -0.77369243
-0.004112286 0.00292447 -0.77039945
-0.0030558794 0.0032332998 -0.76809704
-0.0020050546 0.0034764959 -0.76586902
-0.00098212843 0.0037028687 -0.76377106
-0.00038226545 0.0038167418 -0.76257735
0.00065172871 0.0039342679 -0.76056892
0.0012337208 0.003970996 -0.75946486
0.0022706047 0.0040241601 -0.75752139
0.0028946504 0.0040026992 -0.75635827
0.0044237827 0.003966785 -0.75349665
0.0059801056 0.0038789308 -0.75059962
0.0085634645 0.0036242893 -0.7459628
0.018910293 0.0047374293 -0.72868711
0.021285091 0.0043600863 -0.72592986
0.022881031 0.0045097503 -0.72420102
0.024630755 0.0050552459 -0.72243905
0.025680136 0.0052956766 -0.72143924
0.026651256 0.005601312 -0.72052687
0.02742089 0.0056866924 -0.71984339
0.028195512 0.0058222548 -0.71914846
0.028819246 0.0056612315 -0.7186361
0.029265961 0.0053188303 -0.71830845
0.029699057 0.005012258 -0.71798813
0.029899385 0.0045229746 -0.71788001
0.03053581 0.0044378685 -0.71735436
0.030967625 0.0041763219 -0.71703249
0.031384099 0.0039524646 -0.71673208
0.031738598 0.0038048346 -0.7164644
0.03238304 0.003786748 -0.71593559
0.032761224 0.0036252216 -0.71565968
0.033444881 0.0035905649 -0.71512204
0.034173131 0.0035483623 -0.71455628
0.034917492 0.003490991 -0.71399218
0.035694037 0.0034349672 -0.71341914
0.036452916 0.0033871438 -0.7128582
0.037345733 0.0031881914 -0.71224451
0.038420778 0.0033460094 -0.71148926
0.039407909 0.0030818745 -0.71086323
0.040485397 0.0032635236 -0.71014798
0.041600365 0.0033723623 -0.70944637
0.042775005 0.003438242 -0.7087335
0.043997739 0.0034614687 -0.70801938
0.045203753 0.0034652045 -0.70733958
0.046312295 0.0034877013 -0.70673752
0.047343288 0.0035507844 -0.70619935
0.048361678 0.003433882 -0.70570135
0.049287707 0.0035585871 -0.70524657
0.050213449 0.0036563161 -0.70480484
0.051128466 0.0036298784 -0.70440197
0.052018676 0.0037190448 -0.70399672
0.052814566 0.0036443344 -0.70365793
0.053635411 0.003665217 -0.70331293
0.054410551 0.0037059868 -0.70298564
0.055076439 0.0036968745 -0.70271885
0.055768017 0.003785983 -0.70243663
0.056391634 0.003813959 -0.7021898
0.057045776 0.0039226422 -0.70192957
0.057699852 0.0039608921 -0.70168185
0.05827703 0.0040613008 -0.70145917
0.059095655 0.0040983264 -0.70116127
0.059875522 0.0041310303 -0.70088142
0.064169854 0.0034050343 -0.6995731
0.06503699 0.0032356053 -0.6993351
0.065066122 0.003116871 -0.69933474
0.066780686 0.0031731154 -0.69886667
0.067650095 0.0031583044 -0.69864184
0.068669595 0.0032360486 -0.69838125
0.070351101 0.0032805977 -0.69798613
0.07138437 0.0033142776 -0.69775504
0.073404424 0.0034029535 -0.69733483
0.07452175 0.0034573702 -0.69711703
0.075592823 0.0035075801 -0.69692075
0.077044614 0.0035196869 -0.69667518
0.078179322 0.0035995943 -0.69648856
0.07958515 0.0036270942 -0.69628108
0.080892138 0.0036280365 -0.69610381
0.082011528 0.0037135824 -0.69595432
0.083280303 0.0036976114 -0.69580704
0.084386587 0.0037615253 -0.69568044
0.085641466 0.0037393381 -0.69555557
0.086762637 0.0038100341 -0.69544458
0.087855399 0.0038600513 -0.695346
0.088977806 0.0039012411 -0.69525301
0.090195246 0.0038242033 -0.69517219
0.091206573 0.0039885347 -0.69509071
0.092420839 0.0038630504 -0.69502991
0.093574777 0.0038367922 -0.69496804
0.094755515 0.0038076069 -0.69491357
0.095912173 0.0038260261 -0.69485837
0.097154483 0.003755677 -0.69481778
0.098401107 0.0036916374 -0.69477987
0.099727787 0.0035792079 -0.69474888
0.10106365 0.0034383773 -0.69471633
0.10237691 0.0033837098 -0.6946876
0.1037346 0.00327534 -0.69467098
0.10497586 0.0031677207 -0.6946699
0.10616482 0.0032031536 -0.69468635
0.10728338 0.0031622227 -0.69471288
0.10850959 0.0030110774 -0.69476926
0.10957501 0.0029847936 -0.69481391
0.11064564 0.0029981383 -0.69485384
0.11176109 0.0029985884 -0.69490927
0.11281487 0.003007039 -0.69494003
0.11388345 0.0030450309 -0.69496948
0.11489801 0.0030979908 -0.69499701
0.11585893 0.0031984313 -0.69502622
0.11678521 0.0033215294 -0.6950435
0.11782289 0.0034046513 -0.69507742
0.11889433 0.0034619828 -0.69511491
0.11998171 0.0035155774 -0.69516981
0.12108754 0.003552964 -0.69523853
0.12195445 0.0037466623 -0.69527841
0.12308228 0.0037840158 -0.69535339
0.12422498 0.0038230652 -0.6954155
0.12508906 0.0040527442 -0.69542634
0.12650701 0.003910854 -0.69553298
0.12765571 0.0039572883 -0.69558096
0.1285637 0.0041809031 -0.69559777
0.12973751 0.0042232391 -0.69565648
0.13090996 0.0042294976 -0.6957196
0.13228835 0.0040026456 -0.69585443
0.13343161 0.0040301727 -0.69594693
0.13478099 0.0038355698 -0.6961323
0.13591258 0.0038685095 -0.69624645
0.13726287 0.0036691176 -0.69643271
0.13861264 0.0034706634 -0.69664794
0.14017601 0.0030431831 -0.69692135
0.14132003 0.0030510447 -0.69705051
0.14291598 0.0025999912 -0.69732952
0.1440725 0.0025737076 -0.69746429
0.1452245 0.0025434056 -0.69759649
0.14637493 0.0025062179 -0.69772959
0.1475182 0.0024674227 -0.69786215
0.14868428 0.0024100817 -0.69800478
0.14959976 0.0026148011 -0.69805622
0.15051185 0.0028237454 -0.69810712
0.1516746 0.0027716013 -0.69825941
0.15257582 0.0029844532 -0.69831795
0.1532055 0.0034507299 -0.69827664
0.15409192 0.0036695737 -0.69833833
0.15497792 0.003889434 -0.69840699
0.15587361 0.0041087805 -0.69848233
0.15676722 0.0043390905 -0.69855881
0.15766644 0.0045693815 -0.6986407
0.15882048 0.0045534335 -0.69884586
0.15973872 0.00479329 -0.69894034
0.16091089 0.004781371 -0.69915843
0.1618486 0.0050234194 -0.69925773
0.16302437 0.005011024 -0.69947869
0.16419187 0.0050053862 -0.6996904
0.16535434 0.0049977563 -0.69989944
0.16631593 0.0052384711 -0.6999858
0.16765359 0.005004629 -0.70028567
0.16898851 0.0047623874 -0.70057052
0.17030235 0.004542416 -0.70082581
0.171624 0.0043387441 -0.70105344
0.17295164 0.0041426993 -0.70125341
0.17404397 0.0042352835 -0.70130992
0.17565231 0.0038301509 -0.70151401
0.17672175 0.0039670747 -0.70149231
0.17838463 0.0036106694 -0.70156509
-0.043635972 0.0038865109 -0.81703913
-0.041991901 0.0038526885 -0.81638873
-0.041632649 0.0034480749 -0.81618798
-0.04061747 0.0032439828 -0.8157267
-0.039599311 0.003074053 -0.81524652
-0.038606472 0.0028946686 -0.81475621
-0.037617393 0.0027216405 -0.81424516
-0.036057066 0.0027098141 -0.81341547
-0.034511358 0.0027051573 -0.81252706
-0.033576187 0.00256499 -0.81194341
-0.032653712 0.0024598427 -0.81134564
-0.031241551 0.0024497781 -0.81038475
-0.029296687 0.0025744995 -0.80894464
-0.027980074 0.0025835079 -0.80787641
-0.026703516 0.0025811126 -0.80676359
-0.024949836 0.002723689 -0.80509657
-0.023311902 0.0028318923 -0.80338013
-0.021723626 0.0029652454 -0.80156571
-0.019780241 0.0031132151 -0.79912335
-0.01749393 0.0031501879 -0.79596508
-0.01533984 0.0030284459 -0.7926845
-0.013291063 0.0026778465 -0.7892794
-0.011321937 0.0021356856 -0.78573775
-0.0093981167 0.0016091909 -0.78198868
-0.0075045708 0.0013701952 -0.77801967
-0.005572136 0.0013831774 -0.77383316
-0.004076987 0.0016164562 -0.77055812
-0.0025929145 0.0019545329 -0.76733965
-0.0015442237 0.002246676 -0.76513249
-0.00049399666 0.0024526706 -0.76302201
0.00055128121 0.0026015237 -0.7609964
0.0011530982 0.002683548 -0.75985724
0.0017832475 0.002723336 -0.75868446
0.0028414729 0.0027542398 -0.75672251
0.0039231633 0.0027474111 -0.75472903
0.0055156145 0.0026835967 -0.75178748
0.0066030202 0.0026216374 -0.74980319
0.0087005906 0.0023789385 -0.74608403
0.011553972 0.0021363748 -0.74098265
0.01436391 0.0023892678 -0.73582244
0.017162811 0.0033313187 -0.73142213
0.018605454 0.0036231098 -0.7293632
0.020610174 0.0032110272 -0.72696358
0.02260845 0.0033593639 -0.72469556
0.023786191 0.0035255407 -0.72348291
0.025193386 0.0039291787 -0.72208631
0.026208648 0.004199239 -0.72112447
0.027016141 0.0042730807 -0.72040278
0.027807087 0.0043560886 -0.71970308
0.028410316 0.0042425846 -0.71918178
0.028824588 0.0038951505 -0.71886438
0.029246517 0.0035799891 -0.71855557
0.029652508 0.0033087162 -0.71823871
0.030063657 0.0030370399 -0.71792942
0.030450372 0.0028009873 -0.7176286
0.031061327 0.0027925421 -0.71711999
0.03140771 0.0026446588 -0.71685743
0.031757835 0.0024835642 -0.71659291
0.032436818 0.0024370453 -0.71604896
0.033130337 0.002396035 -0.71549153
0.033850987 0.0023248056 -0.71493918
0.034375954 0.0018182446 -0.71457952
0.035407215 0.0020881044 -0.7137751
0.036349021 0.0017495932 -0.71309578
0.037526377 0.0012061492 -0.71230674
0.0389513 0.00041437152 -0.71142107
0.039897401 0.00087067246 -0.71077007
0.040894017 0.0011995665 -0.71010107
0.041865159 0.0015442404 -0.70947647
0.042957056 0.0017623189 -0.70879859
0.044146989 0.0018688561 -0.70810312
0.045342412 0.001937389 -0.70742661
0.046441361 0.002052987 -0.70682961
0.047407717 0.0022109672 -0.70631689
0.048366971 0.0023307423 -0.70582008
0.049326017 0.0022831392 -0.70537466
0.050224323 0.0024157504 -0.70494246
0.051150855 0.0023894955 -0.70452404
0.051981907 0.0025284898 -0.70414823
0.052812897 0.002534318 -0.70377672
0.053566031 0.0024748112 -0.70346951
0.054266341 0.0025459644 -0.70316494
0.054990485 0.0025988496 -0.70286185
0.055559397 0.0026435074 -0.70263195
0.056245368 0.0027262049 -0.7023558
0.05675289 0.0028391359 -0.70214951
0.057174403 0.0029336112 -0.70198011
0.060590807 0.0030058201 -0.70073587
0.062126841 0.001992035 -0.70030195
0.062816627 0.0019859152 -0.70008624
0.062779032 0.0020805297 -0.70008963
0.062929705 0.0022914119 -0.70002514
0.063925333 0.0023980353 -0.6997171
0.066804849 0.0024222925 -0.69892091
0.068624154 0.0024602616 -0.69846547
0.070429824 0.0024338127 -0.69805014
0.072138786 0.0024730735 -0.69767958
0.074084617 0.0023826323 -0.69730473
0.075626031 0.0024440102 -0.6970191
0.07706897 0.002462999 -0.69677293
0.078206681 0.0025460303 -0.69658601
0.07958848 0.0025882071 -0.69637841
0.080893554 0.0025690547 -0.69620204
0.082174368 0.0025758792 -0.69603956
0.083269082 0.0026609045 -0.69590336
0.084374733 0.0027394381 -0.69577521
0.085627817 0.0027008292 -0.69565076
0.086759038 0.0027670171 -0.6955384
0.087841019 0.0028487809 -0.69543707
0.089088596 0.0027451389 -0.69534713
0.090201966 0.0027832366 -0.69526297
0.091338664 0.0028068949 -0.69518608
0.092475764 0.0028037406 -0.69511825
0.093611948 0.0028032532 -0.69505566
0.094761021 0.0028655112 -0.69499522
0.095994003 0.002798972 -0.69494581
0.097225472 0.0027068169 -0.69490796
0.098502636 0.0026587949 -0.69486719
0.099834062 0.0025880036 -0.6948334
0.10116328 0.0024439564 -0.69480067
0.10248442 0.0023331328 -0.69477528
0.10384572 0.0022634186 -0.69474655
0.10508265 0.0021370803 -0.69476074
0.10627169 0.0020565202 -0.69478637
0.10740711 0.00212053 -0.6948204
0.10855871 0.0020331086 -0.69486862
0.10962949 0.0020146365 -0.69492149
0.11071378 0.001995605 -0.69496506
0.11181232 0.0019670089 -0.69501221
0.11280456 0.0020051135 -0.69504476
0.11388873 0.0020417601 -0.69507945
0.1148831 0.0020676339 -0.69510287
0.11583235 0.0021532194 -0.69512719
0.11672452 0.0022824961 -0.69514966
0.11777262 0.0023492621 -0.69518763
0.11885904 0.0023923235 -0.69523531
0.11994553 0.0024383513 -0.69528764
0.12080812 0.0026094788 -0.69533938
0.12190718 0.0026535331 -0.69542223
0.1230317 0.0026942547 -0.69551748
0.12418506 0.0027247712 -0.69558471
0.12534304 0.0027427126 -0.69565547
0.12648524 0.0027931558 -0.69572616
0.1276412 0.002844559 -0.69577688
0.12880404 0.0028700125 -0.695849
0.12996572 0.0028853514 -0.69590324
0.13134328 0.0026909229 -0.69601148
0.1324911 0.0027161706 -0.69609928
0.13363057 0.0027499455 -0.69620496
0.13498709 0.0025632461 -0.69640338
0.13611971 0.0025932931 -0.69651824
0.13747188 0.0024025228 -0.69671667
0.13882001 0.0022106408 -0.69693577
0.14017092 0.0020161828 -0.69713879
0.1415395 0.0018050325 -0.69734555
0.14291601 0.0015783248 -0.6975553
0.14406914 0.0015613138 -0.6976921
0.14545976 0.0012935858 -0.69790989
0.14661233 0.001244726 -0.69805223
0.14775768 0.0011930541 -0.69819391
0.14867966 0.0013962479 -0.69825125
0.14984556 0.001333696 -0.69840276
0.15075751 0.0015397783 -0.69846213
0.15166149 0.0017527348 -0.6985203
0.15256025 0.0019649232 -0.69858378
0.15318537 0.00243132 -0.69854647
0.15406947 0.0026477908 -0.69861239
0.15496072 0.0028625187 -0.6986866
0.15584981 0.0030847492 -0.69876391
0.15674585 0.0033135032 -0.69884688
0.15763912 0.003540013 -0.69893324
0.15880089 0.0035093783 -0.69914836
0.15970744 0.0037516062 -0.69924557
0.16088167 0.0037323148 -0.69947302
0.16182585 0.0039602527 -0.69958299
0.16299747 0.0039431378 -0.69980943
0.16416965 0.0039265966 -0.70003468
0.16512953 0.0041652336 -0.70013416
0.16629404 0.0041658836 -0.70033932
0.16764675 0.0039157602 -0.7006461
0.16896945 0.0036928067 -0.70092094
0.17027876 0.0034797422 -0.70116776
0.17160371 0.0032761265 -0.7013911
0.17293553 0.0030850053 -0.70157629
0.17427243 0.0029159738 -0.70172155
0.1756288 0.0027786896 -0.70181412
0.17699167 0.0026570451 -0.70185411
-0.042746659 0.0026081128 -0.81651425
-0.041753516 0.0023895721 -0.8160904
-0.041431732 0.0019691621 -0.81590593
-0.040445939 0.0017744007 -0.81546044
-0.038838871 0.001752062 -0.81472993
-0.037875608 0.0015512394 -0.81423855
-0.036919288 0.0013559879 -0.81373107
-0.035390701 0.0013285079 -0.81290448
-0.033860177 0.0013008644 -0.81201285
-0.032956533 0.0011459927 -0.81144118
-0.032071341 0.0010044031 -0.8108629
-0.030666556 0.00099393574 -0.80990982
-0.028697278 0.0011262015 -0.80845273
-0.027356911 0.0011542223 -0.80736464
-0.026110163 0.0011851824 -0.80627751
-0.024355443 0.0013308049 -0.80460447
-0.022693865 0.0014736649 -0.80285633
-0.02062474 0.0017253453 -0.80042124
-0.01826952 0.0019075817 -0.79730111
-0.016074905 0.0019146363 -0.79405808
-0.013999149 0.0017394118 -0.79068786
-0.01162417 0.001182311 -0.78648031
-0.0097192852 0.00063049007 -0.78281164
-0.0074322373 0.0001711473 -0.77808022
-0.00552146 0.00010864634 -0.77396542
-0.0040278086 0.00032100803 -0.77069557
-0.0025444704 0.00063764787 -0.76747805
-0.0010692071 0.0009599672 -0.76440912
1.1539175e-06 0.0011986091 -0.76229411
