ply
format ascii 1.0
comment PCL generated
element vertex 1346
property float x
property float y
property float z
element camera 0
property float view_px
property float view_py
property float view_pz
property float x_axisx
property float x_axisy
property float x_axisz
property float y_axisx
property float y_axisy
property float y_axisz
property float z_axisx
property float z_axisy
property float z_axisz
property float focal
property float scalex
property float scaley
property float centerx
property float centery
property int viewportx
property int viewporty
property float k1
property float k2
end_header
0.15849863 0.072655059 -0.91503519
0.16466728 0.072542429 -0.91762066
0.14681433 0.081549272 -0.91607088
0.15710019 0.082355224 -0.91680592
0.16702475 0.082256243 -0.91956586
0.17465207 0.087128155 -0.92527801
0.18075396 0.086094618 -0.93273741
0.19117573 0.086857773 -0.93460506
0.19708852 0.085939512 -0.93749493
0.20537752 0.086059794 -0.94231719
0.15922953 0.092763528 -0.9238196
0.054146823 0.19469398 -0.8663708
0.049395613 0.20577256 -0.85791099
0.055916402 0.2039607 -0.86447203
0.063105002 0.20468995 -0.87017065
0.069037542 0.20610011 -0.87591404
0.045004465 0.21481061 -0.86373389
0.054057311 0.21406414 -0.86618495
0.064224735 0.21376273 -0.86886442
0.071245611 0.21411444 -0.87524891
0.056940041 0.22583032 -0.86583823
0.064100504 0.22384535 -0.8679232
0.07121712 0.22391123 -0.87500268
0.056945294 0.23293391 -0.86655968
0.064850867 0.2329998 -0.86799645
0.071190953 0.23370264 -0.87460947
0.05780467 0.24179845 -0.8609283
0.06608209 0.24206404 -0.86690116
0.071448192 0.24177136 -0.87305349
0.043255653 0.24662137 -0.86270046
0.067834459 0.25101051 -0.86538225
0.070639938 0.25210235 -0.87079608
0.31998926 -0.13139963 -0.99834746
0.32103378 -0.12206618 -0.99220645
0.32686141 -0.12485016 -0.99934781
0.30773503 -0.11843777 -0.98203081
0.31873518 -0.11483547 -0.99188226
0.20992889 -0.055232123 -0.93828166
0.21764272 -0.056529939 -0.94407719
0.20052943 -0.048982065 -0.93495554
0.21271461 -0.048611373 -0.93438393
0.19536225 -0.036191128 -0.93112808
0.2035962 -0.03987623 -0.92941189
0.21072783 -0.043035254 -0.93036205
0.19096026 -0.030387059 -0.92511845
0.17926976 -0.017488964 -0.9196437
0.18515645 -0.024016112 -0.92231643
0.17138538 -0.010808939 -0.92068875
0.18165159 -0.011051751 -0.9166683
0.17487134 -0.0012121177 -0.91602701
0.16877215 0.0083236434 -0.91443342
0.16176234 0.021182451 -0.91278106
0.17096946 0.017856792 -0.91104591
0.16165444 0.027490748 -0.9126212
0.17037401 0.027417229 -0.91197979
0.16145144 0.036972996 -0.91095424
0.17055315 0.036913205 -0.90884596
0.16228105 0.04690117 -0.90904003
0.16817717 0.043893047 -0.90844321
0.16140467 0.053213742 -0.91169614
0.16729669 0.056033764 -0.91439772
0.17635047 0.057391398 -0.91630411
0.18769433 0.060506739 -0.9169023
0.17574619 0.065893032 -0.91877913
0.18648963 0.065772243 -0.92050475
0.19364245 0.066540755 -0.91902411
0.17499875 0.07241191 -0.9197976
0.18659008 0.073309317 -0.92027754
0.19545148 0.07335832 -0.92298752
0.20438634 0.073045097 -0.92649734
0.21133472 0.078864224 -0.93429381
0.22037013 0.078834899 -0.93795246
0.22657256 0.078799568 -0.94011599
0.17747402 0.079660483 -0.92078412
0.18290973 0.078965858 -0.92490715
0.19211583 0.079298727 -0.92814672
0.20179258 0.079039171 -0.93131518
0.050851412 0.19964746 -0.85668826
0.057785239 0.25031072 -0.85358107
0.061390426 0.24921112 -0.85410011
0.064957313 0.25321865 -0.85889262
0.069852881 0.2566745 -0.86284435
0.29624403 -0.11211836 -0.97401321
0.31504667 -0.11399771 -0.9809767
0.31772608 -0.11191068 -0.98746479
0.28632355 -0.10401509 -0.96956491
0.22480303 -0.048241567 -0.93376219
0.21692201 -0.038425386 -0.92982459
0.22703074 -0.041530132 -0.93100375
0.20052809 -0.029520731 -0.92430967
0.20957914 -0.029040229 -0.92308366
0.21636754 -0.029525913 -0.92349201
0.18837692 -0.017474206 -0.91788632
0.19716401 -0.020055031 -0.91812634
0.20525427 -0.02246768 -0.91886836
0.18970966 -0.010776781 -0.91696501
0.18433286 -0.00118173 -0.91378188
0.19294599 -0.0010914722 -0.91340995
0.18182123 0.0083175935 -0.91214824
0.18222724 0.017803404 -0.91152465
0.18227404 0.02715097 -0.91044503
0.19316204 0.027042702 -0.91066271
0.17978819 0.036729205 -0.90930271
0.19029815 0.033463411 -0.9108333
0.1822515 0.046267755 -0.91103941
0.18266757 0.052827053 -0.91544217
0.19006012 0.054281134 -0.91223669
0.19584666 0.060523983 -0.91571277
0.20006776 0.066551909 -0.9222315
0.20787013 0.06723354 -0.92149723
0.21366467 0.0722735 -0.92558628
0.059989352 0.25519028 -0.85184431
0.053292427 0.2627041 -0.84646112
0.061007429 0.26132756 -0.85073262
0.069181643 0.261628 -0.85499722
0.074609347 0.26141331 -0.85796446
0.0565263 0.26572099 -0.84198421
0.06174574 0.27034417 -0.8492986
0.071752183 0.26990455 -0.85258192
0.062200267 0.27966297 -0.84876466
0.056396492 0.28639528 -0.84765923
0.31151339 -0.1095485 -0.9680928
0.32381949 -0.10362343 -0.97758669
0.28225774 -0.08966995 -0.9494831
0.23385052 -0.046728197 -0.93361044
0.22924256 -0.035140414 -0.92770052
0.23719792 -0.041044656 -0.92778796
0.22670797 -0.031341363 -0.9228757
0.21178137 -0.019352866 -0.91529799
0.22136632 -0.022765484 -0.91695833
0.20007916 -0.010443119 -0.9146136
0.20983487 -0.010264345 -0.91275108
0.20087256 -0.0010500511 -0.91314238
0.20906262 -0.00096644735 -0.9128921
0.19600733 0.0085023716 -0.91115117
0.20402929 0.0083158715 -0.90883178
0.19604151 0.017805554 -0.9105078
0.20457348 0.020728881 -0.90834236
0.20139767 0.027430218 -0.9099797
0.2101043 0.027167793 -0.9104439
0.19173557 0.039735723 -0.90911829
0.20283318 0.036389738 -0.91014045
0.21136437 0.03656169 -0.91401607
0.1939905 0.04687335 -0.90948206
0.20273095 0.045832433 -0.90766811
0.21049674 0.044752393 -0.90759254
0.19882928 0.05370295 -0.91090369
0.20910974 0.056494813 -0.91499829
0.22106884 0.058500994 -0.9160139
0.21760346 0.065815337 -0.91979009
0.22718875 0.06396804 -0.9191826
0.22593193 0.071376011 -0.92501688
0.05962836 0.27007562 -0.83479172
0.059479844 0.28058347 -0.83887535
0.062706061 0.28810847 -0.83284861
0.30324239 -0.10238595 -0.95149517
0.3092308 -0.10260446 -0.95342326
0.29305786 -0.092207752 -0.94606662
0.29868972 -0.096115671 -0.94692093
0.28160554 -0.084275827 -0.94508159
0.24474104 -0.047421981 -0.92714649
0.2402883 -0.03481805 -0.92282051
0.24720713 -0.040392332 -0.92517525
0.24299489 -0.028484641 -0.91885346
0.21772227 -0.016001234 -0.91264212
0.22516705 -0.016805436 -0.91083997
0.23280789 -0.02150411 -0.91311532
0.21883102 -0.01023112 -0.91113764
0.21776854 -0.00091282523 -0.91197181
0.21515653 0.0084396768 -0.91009921
0.2057686 0.014535691 -0.90813476
0.2156532 0.017745504 -0.91005671
0.22710645 0.017632268 -0.90848148
0.21733619 0.027052414 -0.91157413
0.22528374 0.026902562 -0.90951794
0.22504252 0.03677826 -0.90969235
0.23204343 0.040382881 -0.90881693
0.21647939 0.045912724 -0.91229409
0.2234187 0.045489643 -0.90954936
0.23113093 0.045502342 -0.91324782
0.21680932 0.052461848 -0.90950608
0.22321671 0.052581169 -0.91117513
0.23059747 0.054574806 -0.91406322
0.23596583 0.064289846 -0.91650349
0.2414708 0.064340696 -0.9193548
0.057433132 0.26985615 -0.82068789
0.047115684 0.27981544 -0.81818283
0.055613741 0.27953467 -0.82244545
0.059324332 0.27823523 -0.82979089
0.058106687 0.28564358 -0.82407415
0.061597724 0.2868222 -0.82830226
0.31963354 -0.10307967 -0.95316625
0.30606687 -0.096021377 -0.94606233
0.31389403 -0.095600381 -0.94481117
0.29310936 -0.08415512 -0.94094682
0.30456725 -0.089673795 -0.94257587
0.28779724 -0.076791629 -0.93693113
0.25564334 -0.046865512 -0.92240679
0.25139138 -0.033639353 -0.92003053
0.25795221 -0.040210854 -0.91983742
0.24398381 -0.018898284 -0.91268867
0.22833033 -0.010004914 -0.90833426
0.23749678 -0.010090375 -0.90508908
0.23056851 -0.00094333757 -0.90652812
0.22894824 0.0083418377 -0.90729648
0.2353089 0.017763443 -0.90542418
0.23577562 0.02679823 -0.90712231
0.23520021 0.033273332 -0.90652317
0.24215592 0.039291259 -0.90781444
0.24351886 0.045113046 -0.91199178
0.24291797 0.054367293 -0.91254586
0.32577533 -0.094353437 -0.94352531
0.3045634 -0.082994923 -0.93692285
0.31806311 -0.088673592 -0.93747979
0.30011848 -0.076657794 -0.93264514
0.26701391 -0.049433675 -0.91646761
0.26665607 -0.037085947 -0.91142952
0.25520396 -0.027184917 -0.91363215
0.25116062 -0.016005205 -0.90695614
0.2573894 -0.02071513 -0.9112289
0.24682742 -0.0099512469 -0.90254152
0.24194801 -0.00086851954 -0.89889884
0.24014439 0.0083855847 -0.90352148
0.24920179 0.0085260021 -0.90045375
0.24905154 0.018318851 -0.90129828
0.24983339 0.026674476 -0.9023695
0.25040549 0.034659494 -0.90385759
0.25905812 0.038665775 -0.90544528
0.2557804 0.045217484 -0.90965503
0.31929973 -0.081565663 -0.93055111
0.32760522 -0.087475032 -0.93436676
0.33648145 -0.087895252 -0.93703568
0.30968648 -0.076904297 -0.92776918
0.29287472 -0.070043191 -0.9215433
0.30244845 -0.069733001 -0.92334127
0.27891031 -0.040237479 -0.91069776
0.271543 -0.030576956 -0.90422285
0.26094174 -0.014976083 -0.90533602
0.26963061 -0.020822639 -0.90540338
0.25576541 -0.010657452 -0.90267915
0.26869807 -0.0083240354 -0.89817744
0.2515614 -0.0010301458 -0.89610463
0.25961116 -0.00077502785 -0.89481527
0.25849995 0.0077700573 -0.89948487
0.2605508 0.017307926 -0.89834774
0.26118168 0.026352113 -0.90296119
0.26988488 0.026351837 -0.90047139
0.26071239 0.032541987 -0.9031024
0.33285052 -0.080566041 -0.92538929
0.31742695 -0.076090716 -0.92249686
0.29421854 -0.069199689 -0.90847129
0.3167007 -0.069907457 -0.91625321
0.28933105 -0.045302432 -0.9047088
0.28078479 -0.027386326 -0.89591825
0.27261445 -0.014411292 -0.90059429
0.28252375 -0.021236924 -0.89732987
0.27656242 -0.0087357191 -0.8957392
0.26929411 -0.00073114107 -0.89136183
0.2702994 0.0084344633 -0.89225042
0.26895738 0.014163883 -0.89160955
0.33044246 -0.074210867 -0.9177444
0.33910811 -0.074986897 -0.91367465
0.34290427 -0.080130987 -0.92583036
0.3079136 -0.061491162 -0.89915705
0.31279239 -0.061968781 -0.90678638
0.32704133 -0.069954604 -0.91050464
0.28872886 -0.033120323 -0.89478153
0.28831369 -0.017315216 -0.89162964
0.28728822 -0.009099381 -0.89087147
0.27942973 -0.00068876799 -0.88708442
0.28131509 0.0075264196 -0.88425958
0.34890741 -0.07403066 -0.91489702
0.35795683 -0.07297691 -0.91716766
0.36651698 -0.073548876 -0.91933978
0.3744294 -0.073242903 -0.92338711
0.33526322 -0.067605853 -0.90960783
0.34264052 -0.068387397 -0.9082005
0.35193309 -0.069037877 -0.90959233
0.37737569 -0.066754185 -0.9240275
0.32433453 -0.061904043 -0.90496415
0.33224544 -0.062198646 -0.90018183
0.29239807 -0.027020453 -0.88922793
0.29985821 -0.017131019 -0.89133024
0.29390529 -0.009378125 -0.88670588
0.30097935 -0.0092685577 -0.88749927
0.29074234 -0.0019157608 -0.88634861
0.29129735 0.0080876546 -0.87993604
0.28394529 0.013927376 -0.88031995
0.36099759 -0.067537278 -0.91162431
0.3689796 -0.067485563 -0.91472554
0.32059976 -0.055324387 -0.88899571
0.32842728 -0.054346129 -0.8941015
0.33872581 -0.058260243 -0.89801258
0.3462514 -0.06174539 -0.90191376
0.35507914 -0.060722962 -0.90447319
0.36411577 -0.061259661 -0.90569955
0.37122381 -0.061499458 -0.9105345
0.34841055 -0.054623049 -0.89303517
0.36103529 -0.054859053 -0.89413828
0.36760798 -0.054290242 -0.89980149
0.37498599 -0.054247998 -0.90415245
0.33006448 -0.048653185 -0.87396091
0.34883448 -0.04712737 -0.87584049
0.36860546 -0.047976781 -0.88651067
0.37370205 -0.047764052 -0.8886888
0.32466722 -0.053909604 -0.86167526
0.3282617 -0.047937568 -0.85608393
0.34260741 -0.048079647 -0.86986804
0.35753039 -0.047738057 -0.87774086
0.36407983 -0.047972821 -0.8831076
0.37511846 -0.040685531 -0.85069704
0.3781926 -0.042611446 -0.85780913
0.32915768 0.018419119 -0.83383924
0.32894874 0.026436983 -0.8291741
0.33121604 0.034054067 -0.8256706
0.37141562 -0.04089658 -0.84054214
0.3734571 -0.040673178 -0.84556764
0.41422522 -0.013328206 -0.86013764
0.34388056 0.028712114 -0.82127798
0.3257542 0.040207952 -0.82006538
0.33425432 0.039637763 -0.82117963
0.34385738 0.034045812 -0.82122755
0.32680103 0.044956781 -0.81825221
0.33635536 0.046711333 -0.81994325
0.34392598 0.0472438 -0.81976128
0.34810916 0.048098195 -0.81973386
0.32714227 0.052859668 -0.8171972
0.33411875 0.053740274 -0.81952584
0.34220004 0.055585783 -0.82337821
0.36891305 -0.040525354 -0.83254606
0.40042633 -0.034469508 -0.84149688
0.40600914 -0.034718893 -0.84187585
0.41773722 -0.007922654 -0.85344905
0.34651724 0.023237864 -0.81739008
0.34555066 0.039284389 -0.81892234
0.35352996 0.036133215 -0.81645346
0.35423505 0.046021994 -0.82088619
0.36429241 0.047886528 -0.82183313
0.35770506 -0.037376981 -0.81568217
0.39761311 -0.034360863 -0.83580434
0.41297764 -0.034079805 -0.84062207
0.36295208 -0.032836881 -0.81074482
0.40459329 -0.028236924 -0.83419859
0.40921259 -0.028860489 -0.83648032
0.41010576 -0.023584208 -0.83478785
0.41755158 -0.018364584 -0.8428418
0.41931787 -0.013073467 -0.83948421
0.42080775 -0.0026153834 -0.84759104
0.427192 0.018532602 -0.84429747
0.35620224 0.028503599 -0.81140167
0.36106569 0.035892118 -0.81477988
0.36947694 0.038696531 -0.8154102
0.36930212 0.043968048 -0.82143968
0.37639609 0.049210306 -0.81891876
0.36752129 -0.027586721 -0.80892467
0.37387517 -0.033986732 -0.80977482
0.38244563 -0.035472918 -0.80922854
0.39185548 -0.03384186 -0.81482136
0.41611457 -0.028662628 -0.83475131
0.42097744 -0.030296074 -0.83802104
0.42535117 -0.031173741 -0.83956397
0.36312255 -0.022186114 -0.80549937
0.41016349 -0.021674803 -0.82592136
0.41543147 -0.020553328 -0.83229852
0.42115197 -0.023395969 -0.83627409
0.36222535 -0.0083677378 -0.80352354
0.4228735 -0.007800709 -0.8328191
0.35924998 -0.0022742529 -0.80549222
0.42356426 -0.0027094309 -0.831936
0.42399839 0.0028395928 -0.83996046
0.36318117 0.0097201886 -0.80177122
0.42515191 0.010427997 -0.83702248
0.36319879 0.017212689 -0.80339885
0.42265427 0.017691296 -0.83136433
0.42557883 0.018153757 -0.83826816
0.36276463 0.025449021 -0.8066594
0.4166666 0.028648173 -0.8284319
0.42159048 0.025842879 -0.83458197
0.42676562 0.026007425 -0.84107035
0.37403241 0.033108246 -0.80828261
0.38049626 0.036189355 -0.81444448
0.41501042 0.036105797 -0.83028239
0.42055482 0.036192123 -0.83643746
0.3784025 0.043775279 -0.81576276
0.42347175 0.043839358 -0.83073908
0.42811918 0.043777291 -0.83304787
0.37392107 -0.028979039 -0.80432075
0.38119346 -0.029423531 -0.8008948
0.38817731 -0.034755252 -0.81067306
0.40227512 -0.028386304 -0.81223994
0.37108356 -0.017660189 -0.80529308
0.37668628 -0.022119431 -0.80107951
0.40527266 -0.023273155 -0.8121165
0.40857098 -0.020687873 -0.8165046
0.37118313 -0.010814181 -0.79918313
0.37801269 -0.01072677 -0.79795653
0.41174111 -0.012968807 -0.815974
0.42053175 -0.010452296 -0.82219112
0.36985904 -0.00056664908 -0.80107003
0.37807137 -0.0011166928 -0.79844481
0.39653182 -0.0029099495 -0.80654162
0.42233953 -0.0026652685 -0.8229779
0.424986 0.002834009 -0.82705307
0.37210104 0.0096121049 -0.7986933
0.37817737 0.0096585136 -0.79736578
0.42368656 0.012642237 -0.82034934
0.42682129 0.010159955 -0.82520717
0.37131667 0.01735675 -0.79852021
0.37694725 0.016525501 -0.80139363
0.42053935 0.018022232 -0.82169366
0.36975858 0.02256318 -0.80085146
0.37532476 0.025118805 -0.8015992
0.38370565 0.023994677 -0.80456191
0.40503037 0.027365126 -0.81156057
0.41066468 0.02539219 -0.81711978
0.41792172 0.022996688 -0.82526147
0.38457343 0.032737684 -0.80645239
0.39171842 0.036363337 -0.80662316
0.40082327 0.03224184 -0.8114714
0.40978664 0.03565041 -0.81858134
0.39202037 0.045671627 -0.80824733
0.41181439 0.043009061 -0.81536674
0.41967916 0.044433344 -0.82308418
0.4265624 0.048250735 -0.82535785
0.43063664 0.048644725 -0.82810146
0.39632732 0.053095497 -0.80592579
0.42752787 0.053452991 -0.82314432
0.38865349 -0.028433761 -0.80026937
0.39540279 -0.028556097 -0.80325478
0.38818008 -0.020516412 -0.79727763
0.39651015 -0.020988444 -0.80264789
0.4052422 -0.019878596 -0.80683446
0.39534581 -0.010531672 -0.80340987
0.40556845 -0.010955811 -0.80684668
0.41317499 -0.0080118841 -0.81259543
0.38615504 0.00027660065 -0.8002457
0.39497614 0.00033785598 -0.80254191
0.40444431 -0.0013829404 -0.80615753
0.41462383 -0.00090786623 -0.81120074
0.42201957 0.00058056781 -0.8167659
0.38630813 0.009725214 -0.79951048
0.39643502 0.0097576771 -0.80117995
0.40520483 0.0098265558 -0.80660146
0.41594571 0.010555997 -0.80877125
0.42356947 0.0091349045 -0.81427264
0.38579804 0.017102437 -0.80062521
0.39569291 0.01718349 -0.80281186
0.40508193 0.017578639 -0.80654764
0.41351321 0.018137719 -0.81178564
0.38778669 0.022026259 -0.80166316
0.39444703 0.024146687 -0.80505848
0.40328115 0.024017796 -0.80803794
0.39690089 0.032688815 -0.8053112
0.41250098 0.048210796 -0.8136552
0.41942286 0.048139393 -0.81684971
0.40358624 0.053093288 -0.80862743
0.41365287 0.055562679 -0.81144249
0.42369157 0.055491999 -0.81426132
0.075958669 -0.065908954 -1.1237779
0.084824517 -0.065611251 -1.1232057
0.075671479 -0.057942823 -1.1218646
0.084639639 -0.058641002 -1.1208535
0.094726622 -0.05558629 -1.1218573
-0.010013378 -0.033811245 -1.128
-0.0081681544 -0.033614822 -1.1215
0.24159798 -0.10071319 -1.1110682
0.057397459 -0.072241642 -1.1110001
0.060907967 -0.07581006 -1.1110159
0.046945885 -0.061843507 -1.115
0.052496932 -0.066904098 -1.1148986
0.075543828 -0.051307704 -1.1176667
0.086396627 -0.053351644 -1.1183319
0.086839467 -0.046703234 -1.1140001
0.095639154 -0.047151312 -1.1171703
0.10326219 -0.046296887 -1.117
0.11069632 -0.047547106 -1.113
0.27801022 -0.13182299 -1.1000527
0.23696953 -0.10632141 -1.1065
0.24264762 -0.10346434 -1.10425
0.24718042 -0.098162338 -1.1054058
0.24988492 -0.094413809 -1.1041478
0.055301212 -0.073577829 -1.1045001
0.060282901 -0.079159386 -1.1051756
0.00075138465 -0.06287653 -1.102
0.046850003 -0.064705424 -1.1069239
0.050092652 -0.068390504 -1.1059994
-0.003589676 -0.051317602 -1.1096727
0.00024783405 -0.055946346 -1.1032989
-0.005110072 -0.043647062 -1.104
0.26753485 -0.13045491 -1.0945001
0.27308506 -0.13056082 -1.0975069
0.2463901 -0.12179708 -1.0982001
0.25532544 -0.12405998 -1.0945002
0.26546761 -0.12507203 -1.0931667
0.27541569 -0.12463617 -1.0961041
0.28285903 -0.12572205 -1.0958002
0.24530478 -0.11445256 -1.0987142
0.255043 -0.11637644 -1.0932857
0.26514199 -0.11983819 -1.0910949
0.2771081 -0.11689404 -1.0922304
0.28340077 -0.11246569 -1.0929857
0.24783511 -0.10650121 -1.0975318
0.2523497 -0.10600462 -1.0935951
0.27687821 -0.10575567 -1.091874
0.2837626 -0.10724461 -1.0965716
0.24960206 -0.099566504 -1.1000006
0.25345415 -0.095622756 -1.0951923
0.0042246068 -0.083993807 -1.0928571
0.056018814 -0.081814975 -1.0932286
0.25407174 -0.086798884 -1.0917066
0.0042306702 -0.074688859 -1.095
0.048447039 -0.072383814 -1.0953335
0.054283909 -0.077178739 -1.0966948
0.0040993243 -0.065652587 -1.0955318
0.043652341 -0.064576939 -1.0980817
0.00306989 -0.053783596 -1.0956666
0.04265371 -0.050313074 -1.0960001
0.00033045094 -0.046910789 -1.0918484
0.049703918 -0.047047965 -1.094919
0.25800547 -0.11238507 -1.090459
0.26438931 -0.1145255 -1.0897841
0.27145359 -0.11407137 -1.0907208
0.28314462 -0.11576091 -1.0875001
0.25612131 -0.10527568 -1.0893986
0.26368603 -0.10452421 -1.0874487
0.27185005 -0.10452557 -1.0891545
0.014995766 -0.094316952 -1.0849999
0.021403508 -0.094401777 -1.0810001
0.25884357 -0.093697958 -1.0876746
0.26263976 -0.097524345 -1.0832247
0.0076893694 -0.088241555 -1.09
0.014493749 -0.084399968 -1.0851221
0.047284905 -0.082223088 -1.0812145
0.054003149 -0.085099623 -1.0854
0.25519037 -0.084491491 -1.0865
0.013494156 -0.074619688 -1.0843092
0.044540584 -0.075169794 -1.0851668
0.0074500991 -0.062178556 -1.0883687
0.011539394 -0.065095425 -1.083804
0.038661268 -0.06345544 -1.082
0.042399444 -0.067333587 -1.0889946
0.0076470431 -0.054946333 -1.0840001
0.038786329 -0.055019971 -1.0855
0.0033029618 -0.046134397 -1.0830889
0.35680905 -0.1532113 -1.0724816
0.36252078 -0.15570907 -1.0762501
0.35781839 -0.14701106 -1.0757554
0.36134544 -0.14220454 -1.0780467
0.36255398 -0.13515803 -1.0753109
0.28845724 -0.10072838 -1.075
0.026478931 -0.094082087 -1.0773335
0.26460162 -0.092210412 -1.0755
0.27456626 -0.095843129 -1.0744188
0.28108275 -0.097122058 -1.0730001
0.034976434 -0.083573535 -1.0746667
0.043804955 -0.085111924 -1.0775986
0.017925872 -0.070160866 -1.079
0.024122868 -0.075259067 -1.0748544
0.035559233 -0.074471727 -1.0774286
0.016464176 -0.064583071 -1.0765494
0.024199 -0.067177318 -1.0721408
0.033609077 -0.067126147 -1.0739367
0.013266272 -0.057254251 -1.0733334
0.034969289 -0.057794258 -1.072467
0.0064368597 -0.045885283 -1.074
0.038554072 -0.049532667 -1.079
0.28491396 -0.16027345 -1.0603989
0.3547436 -0.16182524 -1.0625896
0.28456557 -0.15262368 -1.0640076
0.34775043 -0.15352394 -1.0613852
0.35353786 -0.15537854 -1.0675731
0.28700733 -0.14595173 -1.0637562
0.3496764 -0.14369759 -1.0629392
0.28794551 -0.13823003 -1.0605001
0.28185019 -0.11653604 -1.063
0.27245581 -0.093091853 -1.0660001
0.026252624 -0.062565029 -1.0680933
0.031355064 -0.062639639 -1.0680001
0.016954271 -0.052963439 -1.0654445
0.024052506 -0.055936646 -1.0641905
0.032125872 -0.054843139 -1.0652502
0.0074880281 -0.04216738 -1.0659845
0.011889668 -0.046185184 -1.0638554
0.048188824 -0.042063598 -1.064
0.0041067479 -0.035929281 -1.0630001
0.29197833 -0.17209864 -1.0508487
0.28779933 -0.16621269 -1.0555589
0.29168627 -0.16567418 -1.0520539
0.34677306 -0.16403317 -1.0507758
0.35334405 -0.166454 -1.0573334
0.28740248 -0.15820402 -1.0585001
0.29136667 -0.15588962 -1.0542799
0.34018564 -0.15559356 -1.0524466
0.34410003 -0.15659013 -1.0549603
0.28897449 -0.14383225 -1.0519968
0.28932491 -0.14944039 -1.0558224
0.33959219 -0.14899482 -1.0530001
0.34511486 -0.14650117 -1.0588044
0.35098597 -0.13608906 -1.057
0.28025931 -0.11588144 -1.057
0.28321317 -0.1090254 -1.0581263
0.025822256 -0.05151524 -1.0589502
0.016514502 -0.044028021 -1.0563486
0.023576049 -0.047007311 -1.0540305
0.0085765999 -0.03309498 -1.0552777
0.012049594 -0.037007008 -1.0527949
0.29849094 -0.18262766 -1.0438162
0.30309317 -0.18185094 -1.0410576
0.34732097 -0.18394047 -1.0422481
0.3531667 -0.18382967 -1.046
0.29544371 -0.17495368 -1.0477176
0.30188137 -0.1745743 -1.0425384
0.34544286 -0.17344463 -1.0433937
0.35082835 -0.17825116 -1.0471405
0.29791954 -0.16399114 -1.0447143
0.33601904 -0.16185309 -1.0420324
0.34365779 -0.16564271 -1.0460548
0.29487008 -0.15467145 -1.044618
0.32877213 -0.1537829 -1.0400001
0.33561787 -0.15545657 -1.0460345
0.28982517 -0.14093882 -1.0429969
0.29174078 -0.14664744 -1.0450538
0.33581594 -0.14652917 -1.0486429
0.34090924 -0.14140449 -1.0470704
0.024947299 -0.041891895 -1.0475475
0.032357674 -0.04110029 -1.046129
0.015949329 -0.033115227 -1.0463815
0.023288356 -0.036765426 -1.042739
0.032215673 -0.037691083 -1.0400685
0.012374584 -0.024688097 -1.0460001
0.34169519 -0.19005093 -1.0390103
0.307291 -0.18551856 -1.0383334
0.31491491 -0.1851791 -1.0368048
0.32407981 -0.18613543 -1.0351126
0.33446833 -0.18640171 -1.0371112
0.34271333 -0.18481407 -1.0389879
0.30750978 -0.17458488 -1.0388014
0.3142738 -0.17624721 -1.0363766
0.32403249 -0.17620285 -1.0355545
0.33391905 -0.1762096 -1.0363585
0.34064603 -0.17690223 -1.0387237
0.3045651 -0.16523503 -1.0325862
0.31581357 -0.16690744 -1.0315001
0.32469699 -0.16572131 -1.0331271
0.33325291 -0.16673464 -1.036209
0.29879764 -0.15424566 -1.0356668
0.30161682 -0.15802696 -1.0332959
0.32531878 -0.15581192 -1.0356057
0.29411411 -0.14639647 -1.0346667
0.32479939 -0.14540496 -1.0325952
0.28719461 -0.13328113 -1.0342963
0.29004943 -0.13970993 -1.0338259
0.33939624 -0.1328703 -1.0320001
0.27993569 -0.12288626 -1.031
0.024780281 -0.031714771 -1.0358406
0.03358208 -0.034552258 -1.0340524
0.021352991 -0.025096934 -1.0318253
0.30884242 -0.16149671 -1.0291483
0.31347117 -0.16176885 -1.0282098
0.30508476 -0.15460767 -1.0263096
0.31466016 -0.15504286 -1.0266603
0.29611078 -0.14553377 -1.0244353
0.31740201 -0.14833555 -1.0237699
0.32126123 -0.14269695 -1.0226598
0.28821993 -0.13218768 -1.0259676
0.29065984 -0.13653657 -1.0225
0.33193731 -0.13598932 -1.0281991
0.28511807 -0.12784415 -1.0263126
0.27793416 -0.11709195 -1.0235019
0.036519703 -0.030970933 -1.0255408
0.043118905 -0.033967737 -1.0243334
0.026667418 -0.023279618 -1.0240242
0.031892836 -0.027062656 -1.0237421
0.016569547 -0.011635419 -1.0267566
0.021089025 -0.015199644 -1.024
0.013722494 -0.0067546419 -1.022
0.30752259 -0.15067768 -1.0190001
0.29719758 -0.14228073 -1.0170001
0.303947 -0.14524668 -1.0156487
0.31370527 -0.1435234 -1.0156814
0.28978226 -0.13111594 -1.0190427
0.29430434 -0.13534951 -1.0149018
0.32333222 -0.13674793 -1.0130528
0.28087324 -0.1207657 -1.0192471
0.28523499 -0.12419139 -1.0148001
0.29061216 -0.12694517 -1.011
0.27749223 -0.11449549 -1.0155141
0.046088651 -0.031426031 -1.0167189
0.052644476 -0.033790883 -1.0190001
0.030100781 -0.02049331 -1.0172628
0.036039375 -0.024812656 -1.0154477
0.042567074 -0.027082864 -1.011
0.026048824 -0.01424004 -1.0151801
0.015325841 -0.0028794506 -1.016311
0.021025319 -0.0068105375 -1.0138757
0.30409023 -0.14225546 -1.0093925
0.29684696 -0.13495578 -1.0066668
0.3040247 -0.13816804 -1.00475
0.31512055 -0.1362845 -1.0067577
0.32456782 -0.13281699 -1.0059402
0.28653482 -0.12174918 -1.0080001
0.29325181 -0.12678456 -1.0046
0.33084238 -0.12277906 -1.0062711
0.27871874 -0.11188204 -1.0071046
0.28400177 -0.11795689 -1.0043043
0.33272275 -0.11623703 -1.0020001
0.27589533 -0.10371146 -1.0043334
0.049329907 -0.029294277 -1.0095484
0.055274028 -0.029798985 -1.0080811
0.064947285 -0.030634575 -1.0082132
0.074488044 -0.03018433 -1.0070001
0.037780266 -0.020362642 -1.0076462
0.044874974 -0.024361614 -1.0050001
0.030110629 -0.012171762 -1.0074224
0.035053335 -0.01493181 -1.0044494
0.02017476 -0.0011927375 -1.0101606
0.026952079 -0.0039861207 -1.00503
0.032577537 -0.0076779746 -1.001
0.019920802 0.0045062397 -1.0091606
0.024848036 0.0051177708 -1.0040537
0.024128685 0.014639424 -1.0038421
0.023066495 0.022676401 -1.0035
0.29991779 -0.13176192 -0.99904031
0.30598703 -0.13040209 -0.99771529
0.31495166 -0.13217211 -0.99735087
0.29601544 -0.12541695 -0.99541056
0.30196023 -0.12615818 -0.99274802
0.3189263 -0.12710087 -0.99027991
0.32407296 -0.12637821 -0.99743217
0.28433686 -0.11488372 -0.99580002
0.29144913 -0.11777151 -0.99116278
0.32748055 -0.11867199 -0.99739897
0.26500139 -0.082012936 -0.99350005
0.047749858 -0.02107461 -0.99840742
0.054590307 -0.022160215 -0.99600166
0.064125858 -0.026672112 -0.99566668
0.070145674 -0.026541157 -0.99100274
0.038065102 -0.011751566 -0.99966556
0.045093358 -0.013984705 -0.99577785
0.05149018 -0.010769878 -0.99039912
0.035942119 -0.0041777585 -0.99774736
0.044638399 -0.0048582503 -0.99437505
0.051222451 -0.0062105446 -0.98980123
0.029386828 0.0050784019 -0.99938446
0.034073368 0.0037391861 -0.99452329
0.029019115 0.014564548 -0.99782157
0.032319225 0.014523644 -0.99234611
0.026714284 0.024352347 -0.99528921
0.031989347 0.020739691 -0.98985016
0.024369482 0.030305671 -0.99150002
0.30956823 -0.1303179 -0.9890933
0.31233352 -0.13035336 -0.98800004
0.29818621 -0.12175452 -0.98633337
0.30421004 -0.12589061 -0.9845705
0.31327805 -0.12576552 -0.98105216
0.3211264 -0.12066437 -0.98600006
0.28675228 -0.11257303 -0.98609948
0.29315042 -0.1160923 -0.983365
0.32248774 -0.11464749 -0.98337817
0.27849698 -0.10330833 -0.98525
0.28199014 -0.10779098 -0.98564017
0.27426046 -0.095173597 -0.98510408
0.26905975 -0.083142698 -0.98188537
0.2703934 -0.087889098 -0.98585433
0.26630619 -0.079726741 -0.98606086
0.11842063 -0.042100336 -0.98550004
0.12285127 -0.046702437 -0.98325002
0.11505932 -0.035802834 -0.98397553
0.055905592 -0.019880489 -0.98729068
0.06432499 -0.021902585 -0.98485714
0.075232357 -0.025611626 -0.98525
0.08564502 -0.026457807 -0.98766667
0.095434211 -0.02214556 -0.98340881
0.10416381 -0.023322184 -0.98256963
0.11024126 -0.027940532 -0.9829638
0.055047125 -0.014160598 -0.98650622
0.060962953 -0.014478603 -0.98133039
0.047827024 -0.0014394228 -0.98788911
0.055154905 -0.0039030237 -0.98650002
0.059723563 -0.0052901972 -0.98048246
0.037940595 0.007471486 -0.98747534
0.044074427 0.0030031973 -0.98468417
0.036825694 0.014425711 -0.9842186
0.033901732 0.024461832 -0.98576236
0.02609688 0.035752382 -0.98510009
0.032599855 0.032044109 -0.98261005
0.30584207 -0.12271786 -0.97733337
0.31164986 -0.12255044 -0.97600007
0.28765255 -0.11044952 -0.97900003
0.29659805 -0.11442034 -0.97560006
0.30415234 -0.11808948 -0.97475255
0.31373841 -0.11583538 -0.97557151
0.32276088 -0.10976395 -0.9766435
0.28474569 -0.10482012 -0.97500008
0.29223761 -0.10953096 -0.97314548
0.31933501 -0.10954697 -0.97100008
0.27711168 -0.094453394 -0.97485721
0.28220677 -0.097172275 -0.97099924
0.27241892 -0.085973524 -0.97680283
0.25748953 -0.075980544 -0.97700006
0.26464406 -0.077617593 -0.97535771
0.26911065 -0.079393186 -0.97165704
0.12621972 -0.043810975 -0.97700006
0.12989101 -0.041748963 -0.97045767
0.11809251 -0.034712013 -0.97625005
0.12415472 -0.037258841 -0.97380006
0.06991569 -0.018797498 -0.98213148
0.077171624 -0.023129841 -0.98000002
0.084305659 -0.02139972 -0.98022413
0.094345868 -0.020007253 -0.98000002
0.10995881 -0.023129841 -0.98000002
0.11225317 -0.027021524 -0.97398525
0.06675975 -0.013210004 -0.97989273
0.075337574 -0.015440413 -0.97740865
0.084573179 -0.015253853 -0.97533327
0.092975155 -0.01648592 -0.97393316
0.1051738 -0.01617136 -0.97636187
0.1133445 -0.01883666 -0.97333336
0.066838883 -0.0042709936 -0.97691858
0.074087739 -0.0054035871 -0.97366667
0.081233732 -0.0073899454 -0.97206843
0.044838905 0.0068198191 -0.97640002
0.05440294 0.003171013 -0.97571433
0.064217672 0.0018376482 -0.97300005
0.042995941 0.014417311 -0.97448546
0.03808089 0.025227623 -0.97850001
0.041143086 0.023574503 -0.9730922
0.035904527 0.037087675 -0.97600001
0.033331383 0.045404375 -0.97650003
0.30344817 -0.11248621 -0.96966672
0.28683665 -0.10287851 -0.96790665
0.29465887 -0.10630357 -0.96643662
0.30517116 -0.1089077 -0.9653334
0.31370893 -0.10912082 -0.96804225
0.27924773 -0.090102963 -0.9652251
0.28544542 -0.096450523 -0.96455663
0.2743654 -0.08399269 -0.96539664
0.26502317 -0.073495254 -0.96474999
0.2705169 -0.078385726 -0.9639098
0.25176474 -0.068496756 -0.96106547
0.13176085 -0.050581869 -0.96753114
0.13221891 -0.044362057 -0.96607399
0.12565193 -0.032752674 -0.96670437
0.13169509 -0.03648578 -0.96425408
0.11790603 -0.025940964 -0.96833342
0.12281028 -0.026115585 -0.9638896
0.10556117 -0.010512826 -0.96833342
0.11489236 -0.014897823 -0.96541548
0.11960435 -0.02009853 -0.96248609
0.076751679 -0.0022080091 -0.96772534
0.084661387 -0.0047602421 -0.96615553
0.094469696 -0.0063831867 -0.96533328
0.10507112 -0.0073158219 -0.96269661
0.055522222 0.0073738089 -0.96740007
0.065073319 0.0049771299 -0.96491361
0.073514692 0.002500196 -0.96318686
0.048126783 0.014770523 -0.96740007
0.054217413 0.012855852 -0.96322411
0.037633333 0.04495734 -0.96700001
0.040440742 0.041645765 -0.96197766
0.028527802 0.066550612 -0.96739441
0.031308282 0.069252044 -0.96200007
0.027671441 0.075829029 -0.96787858
0.031209892 0.07537853 -0.96195823
0.031340826 0.087734565 -0.96300006
0.035065047 0.093642518 -0.96614569
0.0394894 0.09744025 -0.96228337
0.29740322 -0.10221886 -0.95747775
0.30531931 -0.10321975 -0.95618641
0.31366307 -0.10355201 -0.95560008
0.32251862 -0.10447967 -0.95300007
0.28832522 -0.092602693 -0.95551485
0.29191357 -0.097314566 -0.95420009
0.27690062 -0.082851313 -0.95450002
0.28377858 -0.088669226 -0.95460331
0.26784921 -0.072553173 -0.95693529
0.27228674 -0.074771881 -0.95360005
0.1655927 -0.060102992 -0.95244485
0.1752747 -0.063008122 -0.95725012
0.18437216 -0.062891096 -0.95780003
0.1948411 -0.062198762 -0.95292151
0.20042971 -0.061772779 -0.95000005
0.21822974 -0.064333141 -0.95075428
0.22539333 -0.06372609 -0.95298123
0.2345542 -0.062682919 -0.95673108
0.2449149 -0.06339591 -0.95485723
0.25449312 -0.065820865 -0.95500445
0.26302436 -0.067675516 -0.95325619
0.13654593 -0.051602155 -0.95804334
0.1407274 -0.052805319 -0.95335823
0.16748457 -0.058869451 -0.95200002
0.17455004 -0.05718118 -0.95271432
0.18510371 -0.058663025 -0.95295435
0.19387233 -0.058066323 -0.95125002
0.22657561 -0.059088562 -0.9505952
0.23446959 -0.059530936 -0.9523555
0.2415466 -0.058807615 -0.95100003
0.13681126 -0.045467056 -0.95712
0.14060639 -0.045214098 -0.95258164
0.13653547 -0.034339588 -0.95727342
0.14023331 -0.03461672 -0.95233339
0.127599 -0.024912661 -0.95691514
0.13340588 -0.027977249 -0.95337564
0.11774258 -0.01222319 -0.95699996
0.12250859 -0.017735777 -0.9537428
0.086227573 -0.00085859926 -0.95923251
0.096026897 -0.001321386 -0.95670235
0.10499275 -0.0027873383 -0.95419139
0.11293676 -0.0067944475 -0.95325547
0.06787876 0.00792256 -0.95900005
0.075870238 0.0065859412 -0.95528585
0.084186576 0.0027490896 -0.95361745
0.093081795 0.0016065047 -0.95135564
0.057803042 0.017103637 -0.95582265
0.064299226 0.01478053 -0.95412534
0.072791375 0.012020538 -0.95190972
0.048158385 0.026774403 -0.95580006
0.053787839 0.022726117 -0.95365703
0.045083445 0.035891086 -0.95519984
0.041957024 0.044972565 -0.95457983
0.035269592 0.057468813 -0.95603871
0.039771087 0.051689118 -0.95232308
0.03398763 0.065119468 -0.95498306
0.033805862 0.07485801 -0.95489752
0.036160611 0.083357394 -0.95491195
0.040198468 0.089802451 -0.9530443
0.037310269 0.090436086 -0.95899254
0.042411201 0.096724272 -0.95489103
0.044466175 0.10465218 -0.95500004
0.040209256 0.11134917 -0.95500004
0.31668538 -0.10033588 -0.94891322
0.32323578 -0.10123867 -0.94400007
0.29559845 -0.093969129 -0.94566673
0.30482295 -0.093881212 -0.94351166
0.31471089 -0.094484724 -0.94340658
0.32119307 -0.095783032 -0.94031948
0.28591534 -0.083842821 -0.94528574
0.29298225 -0.087667137 -0.94200003
0.3076424 -0.088078767 -0.94000006
0.31364539 -0.088046804 -0.94003624
0.27657723 -0.073449731 -0.94440001
0.28218326 -0.077437423 -0.94186223
0.16056105 -0.061110351 -0.94998789
0.20629676 -0.06291195 -0.94906139
0.21473303 -0.062917277 -0.94900006
0.25722325 -0.061323892 -0.94717747
0.26618168 -0.063478477 -0.94538301
0.27485088 -0.064541921 -0.94196284
0.14675048 -0.05354397 -0.94889826
0.15479384 -0.054555375 -0.94662195
0.16378875 -0.054831263 -0.94622231
0.17547153 -0.052470811 -0.94599932
0.18418066 -0.052820425 -0.94435251
0.19531107 -0.054509409 -0.94430137
0.20498717 -0.05578674 -0.94589996
0.2151912 -0.055172164 -0.94570005
0.22496548 -0.055193651 -0.94641018
0.23531933 -0.054296151 -0.94771135
0.24546349 -0.054789454 -0.94474107
0.25384873 -0.057029273 -0.94284987
0.26275003 -0.058034845 -0.94007665
0.14626618 -0.045216281 -0.94866002
0.154966 -0.045609191 -0.94244641
0.16489623 -0.047954522 -0.94131064
0.1744196 -0.049159419 -0.94033337
0.18033163 -0.049215231 -0.93995887
0.22689514 -0.049168132 -0.94050002
0.2348467 -0.049720414 -0.94195968
0.24171478 -0.049654435 -0.94012761
0.14513402 -0.034342807 -0.94477779
0.15052311 -0.037072953 -0.94012076
0.13618097 -0.023909817 -0.9459005
0.14270326 -0.027197443 -0.94171435
0.1266792 -0.013337799 -0.94450235
0.13346153 -0.016649164 -0.94128579
0.10943668 -0.0013298948 -0.94892359
0.11628739 -0.0031804473 -0.94625795
0.1225718 -0.0052199364 -0.94100004
0.086137407 0.0075801015 -0.94872266
0.095369436 0.006392424 -0.94654316
0.10509568 0.0049175126 -0.94583017
0.11485491 0.0048564286 -0.94307238
0.12124865 0.0048255338 -0.94013858
0.065623656 0.019924697 -0.94850004
0.084331907 0.012935555 -0.94285715
0.095021196 0.012454841 -0.94151402
0.1055792 0.012259325 -0.94098389
0.11448909 0.012184604 -0.94016016
0.12025543 0.010583086 -0.93948245
0.056436375 0.027499381 -0.94786465
0.065523371 0.026217466 -0.94528729
0.076479658 0.025895555 -0.94104373
0.048993632 0.035027515 -0.94833344
0.054691974 0.034807816 -0.94428438
0.065189771 0.034803335 -0.94225001
0.075590402 0.034754302 -0.94088894
0.081509613 0.034721825 -0.94000006
0.047055621 0.044753339 -0.94414288
0.054353114 0.041994717 -0.94032645
0.065053254 0.042220484 -0.94025004
0.075152531 0.042680651 -0.93938595
0.081509613 0.042209662 -0.94000006
0.039315872 0.058317721 -0.94724667
0.04317918 0.054041177 -0.94288534
0.038265459 0.06499479 -0.94466662
0.045311317 0.065549925 -0.94083506
0.052532189 0.066736624 -0.93986064
0.038534403 0.07498724 -0.94600004
0.044230968 0.073681936 -0.94035739
0.039709508 0.082898952 -0.94760561
0.043931037 0.086577609 -0.94359565
0.20431019 0.086637519 -0.94000006
0.21347746 0.084098756 -0.94110823
0.048079181 0.094401866 -0.94525003
0.051378094 0.096263967 -0.94084883
0.048257988 0.1060508 -0.94580013
0.051974326 0.10500352 -0.94138211
0.13866435 0.11027679 -0.93947309
0.1429099 0.10960023 -0.94000006
0.039956633 0.11367341 -0.94900006
0.045041531 0.11229608 -0.94273579
0.12749925 0.11816829 -0.94161046
0.13483027 0.11494001 -0.94283342
0.12211658 0.12174342 -0.94153899
0.32746944 -0.10419093 -0.93675005
0.33442798 -0.10321328 -0.93273318
0.31788522 -0.090801269 -0.93914825
0.32583904 -0.092598103 -0.93598908
0.33436587 -0.096314132 -0.93032974
0.34141055 -0.098994851 -0.93000007
0.29596889 -0.083658561 -0.93745375
0.30482253 -0.083702199 -0.93746132
0.31480271 -0.084168591 -0.93403453
0.3218767 -0.08593832 -0.93189061
0.28701234 -0.075060762 -0.93642879
0.29382694 -0.076649532 -0.93300003
0.30502257 -0.078420222 -0.93200004
0.27798685 -0.061875381 -0.93792999
0.28386638 -0.065563731 -0.93422204
0.25554118 -0.052434735 -0.93460006
0.26566082 -0.056026973 -0.93626523
0.27472836 -0.055942759 -0.93379933
0.28156722 -0.057694539 -0.93300003
0.15622164 -0.040113866 -0.93900007
0.16547665 -0.04421933 -0.93720007
0.17402288 -0.044639356 -0.93381196
0.18535289 -0.045148816 -0.93595541
0.19486713 -0.047116447 -0.93371433
0.20540628 -0.047874246 -0.9348408
0.2158366 -0.046994034 -0.93332303
0.22480984 -0.046046164 -0.93381059
0.23522252 -0.046549384 -0.93516254
0.24471347 -0.046360206 -0.93416673
0.25170469 -0.048749901 -0.9325
0.15028429 -0.030632893 -0.93686652
0.15485731 -0.03486035 -0.93440008
0.16501415 -0.038924512 -0.93252409
0.22882918 -0.039669998 -0.93008816
0.23320387 -0.039875329 -0.92981404
0.14642195 -0.02440802 -0.93588895
0.15233622 -0.024957938 -0.93199837
0.13672543 -0.013182697 -0.93866676
0.1452108 -0.01464703 -0.93602508
0.15471417 -0.014095614 -0.93219674
0.16021779 -0.011327428 -0.93021762
0.12741424 -0.003047613 -0.93894172
0.13509101 -0.0041237175 -0.93743956
0.14509884 -0.004194438 -0.93483335
0.1541377 -0.0062561217 -0.93124264
0.16047707 -0.0075756633 -0.92988497
0.1264044 0.0046942313 -0.93769532
0.13474078 0.0047651539 -0.9351607
0.1424794 0.0029033846 -0.93153727
0.08468423 0.017866533 -0.93583906
0.094608776 0.018174179 -0.93625003
0.10519312 0.018181184 -0.93746775
0.1141622 0.017854026 -0.93761259
0.12417401 0.0152444 -0.93497801
0.1319433 0.01396529 -0.93096334
0.077626869 0.026409788 -0.93619752
0.085699908 0.025555784 -0.9352712
0.095684163 0.025621111 -0.93239307
0.10480014 0.025818262 -0.93482101
0.11462768 0.02593787 -0.93650007
0.12472244 0.025336606 -0.93536359
0.13086624 0.022458117 -0.92984003
0.086345032 0.034259249 -0.93478489
0.094038904 0.033215828 -0.93148667
0.1052902 0.032390386 -0.9320516
0.11491844 0.03212858 -0.93184704
0.12276938 0.031240044 -0.93043125
0.048448429 0.049583226 -0.937985
0.054527231 0.048368994 -0.9370299
0.064831182 0.048044506 -0.93700004
0.075783916 0.048017364 -0.93709952
0.085531525 0.04495861 -0.93491668
0.048108086 0.056206912 -0.93791115
0.054625738 0.055216551 -0.93604326
0.064786904 0.055283692 -0.93272442
0.074555621 0.054875277 -0.93262506
0.080675319 0.052002981 -0.93004072
0.046989635 0.061579622 -0.93850005
0.055229213 0.063745275 -0.93718797
0.06315989 0.063802235 -0.93262523
0.24954906 0.066948444 -0.93000007
0.047686674 0.077069059 -0.93764573
0.054634232 0.074761435 -0.93409371
0.060554929 0.070614904 -0.93210244
0.20564121 0.078853659 -0.93283659
0.21489444 0.077565476 -0.93407279
0.22266541 0.076686032 -0.93229443
0.048116669 0.084544718 -0.93761897
0.05369889 0.084526002 -0.9325195
0.19613768 0.084913485 -0.93199998
0.20519565 0.083278038 -0.93687004
0.21308954 0.082622789 -0.93894619
0.055779446 0.094313942 -0.9340865
0.060095541 0.099756122 -0.93206173
0.056397423 0.10492693 -0.93541884
0.060028389 0.10272817 -0.93200004
0.12706548 0.10910912 -0.93164396
0.13470067 0.10653988 -0.935
0.14479572 0.10431462 -0.93287504
0.045459505 0.11710544 -0.9359929
0.052724622 0.11385428 -0.93345839
0.10772452 0.11790661 -0.93048012
0.11569244 0.1155467 -0.93271434
0.12465979 0.11444388 -0.93658215
0.045139179 0.1202438 -0.93088555
0.050711192 0.11952328 -0.93022269
0.098436147 0.1262401 -0.92998093
0.1046297 0.12308807 -0.93250006
0.11389435 0.12088561 -0.9365921
0.34387898 -0.10181195 -0.92866677
0.32966065 -0.088743955 -0.93017566
0.33699507 -0.091232643 -0.92857438
0.34495127 -0.095043339 -0.9275834
0.35124788 -0.095418438 -0.92301279
0.31915316 -0.080951065 -0.92631626
0.32377934 -0.086085394 -0.92442411
0.33521158 -0.086080588 -0.92526203
0.34620395 -0.085156202 -0.92358899
0.35022479 -0.089329936 -0.92200005
0.36747432 -0.080440737 -0.92093265
0.29664394 -0.072879374 -0.92670172
0.30475351 -0.073569849 -0.92503273
0.3144421 -0.075858839 -0.92406076
0.37362036 -0.075354092 -0.92175752
0.28798041 -0.063898444 -0.92646974
0.29211831 -0.067134313 -0.92401367
0.26408115 -0.051527012 -0.92900008
0.27578411 -0.051058438 -0.9283855
0.28491116 -0.054729223 -0.92427242
0.17823863 -0.042646755 -0.92900002
0.18319032 -0.040946968 -0.92838979
0.19609129 -0.041931503 -0.92980093
0.20484008 -0.041692093 -0.93037975
0.21331346 -0.041800592 -0.93003923
0.24626166 -0.044561192 -0.9264825
0.25541052 -0.046023019 -0.92360562
0.26522741 -0.045459382 -0.9226709
0.27496982 -0.045516931 -0.92196465
0.28167549 -0.047222778 -0.92200011
0.15752493 -0.030801388 -0.92900896
0.16389045 -0.031454068 -0.92895061
0.17574091 -0.033853043 -0.92647111
0.18477666 -0.035151988 -0.92545187
0.19527924 -0.034561235 -0.925807
0.20426278 -0.034912892 -0.92680889
0.21465045 -0.035298683 -0.92585123
0.22462577 -0.034968916 -0.92499995
0.23571332 -0.035956878 -0.9251256
0.24431285 -0.035936147 -0.92312562
0.25240847 -0.037334587 -0.92073441
0.15879501 -0.025052838 -0.92935091
0.1648577 -0.02508945 -0.92258084
0.17611727 -0.026147613 -0.92317098
0.18526363 -0.024671094 -0.92264897
0.19462062 -0.025963029 -0.92255527
0.20502755 -0.026154842 -0.92307132
0.2145405 -0.026670206 -0.9221046
0.15970673 -0.019247284 -0.92920923
0.16558598 -0.014741067 -0.9257254
0.17071544 -0.012918325 -0.921049
0.1562845 -0.0014663334 -0.92785019
0.16479428 -0.0044812039 -0.92555553
0.17085959 -0.0056223371 -0.92142004
0.13993883 0.0078516956 -0.92924631
0.14618982 0.0056496332 -0.92612946
0.15394425 0.0035785157 -0.92312324
0.13690524 0.015571228 -0.92618102
0.14374635 0.012519224 -0.92298758
0.13426845 0.025332872 -0.92522228
0.096341684 0.035681665 -0.92875987
0.10298759 0.036634587 -0.92661887
0.11476845 0.037024654 -0.92759115
0.12594984 0.037085671 -0.92445463
0.13253683 0.033118676 -0.92347455
0.29734728 0.032615025 -0.91929287
0.30435479 0.034858257 -0.91992122
0.087994263 0.046661001 -0.9271071
0.094280958 0.043855894 -0.92429936
0.10644697 0.041424673 -0.92250389
0.11527128 0.041327052 -0.92256409
0.12087364 0.042344037 -0.92039466
0.076829016 0.056759655 -0.92741317
0.085284017 0.055056434 -0.9249872
0.093137339 0.05460164 -0.92167163
0.23843652 0.057806477 -0.91989374
0.24419947 0.057496771 -0.92100006
0.067251623 0.067328572 -0.92790461
0.074670441 0.065197505 -0.92452228
0.083754539 0.063407637 -0.92254484
0.091530494 0.060386222 -0.92169356
0.20909061 0.067996971 -0.92215705
0.21515274 0.069540776 -0.92216885
0.22582716 0.068322137 -0.92266321
0.2357621 0.065790869 -0.92315173
0.2448397 0.064035818 -0.9258889
0.2537525 0.063564621 -0.92487609
0.058925856 0.078479894 -0.92795068
0.06500861 0.075332478 -0.9254421
0.074662536 0.074906617 -0.92220718
0.19553693 0.077118024 -0.92399997
0.20507275 0.072968416 -0.92638218
0.21656637 0.072744392 -0.92833334
0.22511117 0.072639912 -0.92700005
0.23046219 0.072004609 -0.9258402
0.058638245 0.085210137 -0.92879999
0.064591318 0.083822578 -0.92359042
0.073885471 0.084318809 -0.92248172
0.14651316 0.088963456 -0.92110223
0.15594591 0.086169899 -0.92200351
0.16515723 0.085425057 -0.92228448
0.17456141 0.087160766 -0.92384601
0.18469387 0.085112922 -0.92344445
0.1904605 0.08369562 -0.92865157
0.059682492 0.09113577 -0.92918748
0.065584928 0.094727099 -0.92643666
0.07217899 0.094364829 -0.92283338
0.12987405 0.098658808 -0.92203343
0.13657954 0.097643338 -0.9236474
0.14538835 0.096524611 -0.92441964
0.15530692 0.094514914 -0.92512441
0.16576785 0.092521437 -0.92549974
0.17380573 0.092373148 -0.92245984
0.18410338 0.087751776 -0.92520517
0.058303315 0.10746518 -0.92702252
0.063752182 0.10348459 -0.92429513
0.094604544 0.10746264 -0.9216668
0.10039973 0.10739396 -0.92098707
0.11549436 0.10792004 -0.92237753
0.12449921 0.10460058 -0.92447972
0.13245782 0.10287863 -0.92749655
0.15140957 0.10122943 -0.92928672
0.058142554 0.11530268 -0.92566675
0.094761059 0.11487916 -0.92283672
0.10455954 0.1140277 -0.92379075
0.11315414 0.11272533 -0.92675412
0.038426641 0.12779374 -0.92363119
0.04441962 0.12480281 -0.92429692
0.053156987 0.12299854 -0.92449385
0.094500326 0.12382076 -0.92487991
0.10155696 0.12049139 -0.92866081
0.034040023 0.13621193 -0.92247176
0.081695303 0.13919482 -0.91903663
0.084869385 0.13548145 -0.9225058
0.080331139 0.14358889 -0.92272925
0.074529387 0.15607041 -0.91970152
0.074861333 0.15868628 -0.91916645
0.35406986 -0.09195254 -0.92003447
0.32111302 -0.07906945 -0.9199459
0.32561597 -0.082127526 -0.91948801
0.33444411 -0.081718713 -0.91900003
0.34574142 -0.08014103 -0.91992295
0.35536155 -0.08489529 -0.92049891
0.36219382 -0.082538441 -0.92011684
0.30679202 -0.07150881 -0.91949999
0.31706905 -0.072220892 -0.9187004
0.32322553 -0.077419899 -0.91303205
0.33529001 -0.076381266 -0.91480494
0.34542018 -0.075070851 -0.91505969
0.35568529 -0.073708743 -0.91609526
0.36468023 -0.073612221 -0.91889417
0.37235487 -0.071275853 -0.91917348
0.29530483 -0.066483103 -0.9164232
0.30442718 -0.066944703 -0.91428578
0.31535533 -0.068278968 -0.91461557
0.32088634 -0.067360111 -0.9127934
0.36500591 -0.067376241 -0.91275263
0.3728289 -0.066551089 -0.9153387
0.28850341 -0.052337021 -0.91725004
0.29235417 -0.056280412 -0.91454291
0.28621572 -0.044799283 -0.91690165
0.29121378 -0.044772267 -0.912
0.22768694 -0.030491378 -0.91949999
0.23493233 -0.030640859 -0.91919255
0.24943045 -0.03127721 -0.91889197
0.25614414 -0.033793975 -0.91761249
0.26358983 -0.034505654 -0.91454977
0.27396855 -0.033978112 -0.91214848
0.28624514 -0.037719715 -0.91259992
0.29121378 -0.037507474 -0.91200006
0.16855872 -0.021564204 -0.92265576
0.17431289 -0.022382986 -0.92168134
0.18835086 -0.021346293 -0.92057109
0.19548501 -0.021629432 -0.91962826
0.20548913 -0.022246333 -0.91859001
0.21591027 -0.022023156 -0.91784275
0.22427954 -0.0242083 -0.91597426
0.23483109 -0.024464127 -0.91309994
0.24487913 -0.024494778 -0.91623306
0.25499052 -0.02499987 -0.91351444
0.26427132 -0.024850249 -0.91214293
0.17603523 -0.016193299 -0.91998565
0.18508784 -0.015038637 -0.91702348
0.1951036 -0.01594572 -0.91596186
0.20480408 -0.015784603 -0.9154253
0.21450566 -0.016278746 -0.91312498
0.22330587 -0.015107839 -0.91072232
0.23666988 -0.014942688 -0.91251373
0.2443167 -0.017224682 -0.91151619
0.25530609 -0.015738655 -0.91350001
0.26225665 -0.018582389 -0.90995765
0.16775967 -0.0011424539 -0.92006099
0.17531952 -0.0052327933 -0.91615385
0.18530239 -0.0048029525 -0.91456205
0.19567566 -0.0055493 -0.91366673
0.20446527 -0.005553076 -0.91391659
0.21422531 -0.0054473989 -0.91171867
0.22405811 -0.005478709 -0.91030467
0.25317305 -0.0067234337 -0.91243613
0.15655293 0.0068600532 -0.91900003
0.16572897 0.0048699426 -0.91675943
0.17516531 0.0050662206 -0.91347927
0.18524905 0.0046666702 -0.91257101
0.19541882 0.0043593803 -0.91161001
0.20531555 0.0043618148 -0.91181833
0.21570438 0.0045631398 -0.91090071
0.22253568 0.0046263309 -0.91160011
0.14709531 0.017434264 -0.91942924
0.15499792 0.01452725 -0.91682786
0.16493973 0.014478337 -0.91366905
0.17520003 0.014821198 -0.9131667
0.18532871 0.014818554 -0.91295987
0.19531614 0.014923606 -0.91058344
