ply
format ascii 1.0
comment PCL generated
element vertex 1406
property float x
property float y
property float z
element camera 0
property float view_px
property float view_py
property float view_pz
property float x_axisx
property float x_axisy
property float x_axisz
property float y_axisx
property float y_axisy
property float y_axisz
property float z_axisx
property float z_axisy
property float z_axisz
property float focal
property float scalex
property float scaley
property float centerx
property float centery
property int viewportx
property int viewporty
property float k1
property float k2
end_header
0.40660977 0.3900443 -0.81662905
0.43703905 0.332715 -0.72945964
0.43184179 0.32796127 -0.72947085
0.44203979 0.31143987 -0.70003116
0.39112973 0.37016889 -0.80817699
0.42317551 0.32411316 -0.72722524
0.42518723 0.31734633 -0.7249403
0.42660442 0.31125441 -0.72223091
0.43269622 0.30508205 -0.70270675
0.4222489 0.30728087 -0.7170471
0.42969674 0.30068779 -0.71218246
0.42851192 0.29814222 -0.70505285
0.41865069 0.30346146 -0.71798313
0.42660153 0.29169524 -0.70168471
0.40808758 0.30110794 -0.72847944
0.36800292 0.17145708 -0.66702837
0.36668578 0.16154176 -0.66594619
0.35999459 0.15820585 -0.65893215
0.35822654 0.14399149 -0.65376514
0.35631612 0.1375445 -0.65039706
0.35302526 0.1305985 -0.65339714
0.3498297 0.13082322 -0.64534265
0.34478784 0.12070376 -0.65625471
0.34367302 0.12256946 -0.64802301
0.33932284 0.11336873 -0.65203142
0.33071065 0.10651866 -0.65283352
0.32692274 0.1017404 -0.66090226
0.3220534 0.10248508 -0.65184939
0.31673327 0.098145321 -0.66126209
0.31050315 0.092178158 -0.66689038
0.29924643 0.088046722 -0.67378724
0.29288858 0.081257835 -0.67655349
0.2828348 0.076934412 -0.69160682
0.2855143 0.07655175 -0.68636614
0.28602579 0.074713886 -0.67898685
0.2764622 0.075316362 -0.69346255
0.27780223 0.071880415 -0.68628269
0.27978307 0.07084588 -0.6778596
0.26299179 0.078059509 -0.71273261
0.26917422 0.075979367 -0.70012259
0.26813915 0.073557831 -0.69148898
0.25851342 0.077508613 -0.72101617
0.25695637 0.076267824 -0.71489638
0.4271296 0.40647221 -0.81865776
0.41523027 0.39662912 -0.82074893
0.41005659 0.37842745 -0.82130617
0.44400936 0.32776329 -0.72458994
0.44622743 0.32300571 -0.71951377
0.44806203 0.31672218 -0.71011621
0.40689588 0.37349272 -0.81730413
0.43628898 0.32084325 -0.72599226
0.43923923 0.31644419 -0.71992916
0.44257301 0.31121054 -0.71138924
0.43434951 0.31030539 -0.72166258
0.43708077 0.30569291 -0.71266085
0.39337358 0.36443037 -0.8134008
0.39444727 0.35404751 -0.80648601
0.4307127 0.30614787 -0.71976691
0.43238032 0.30352992 -0.71549505
0.42001882 0.29479662 -0.72254884
0.42669657 0.29405096 -0.7156812
0.4286091 0.28554046 -0.70940709
0.41106212 0.29205295 -0.7394011
0.41917527 0.2894007 -0.73088109
0.42806181 0.27582979 -0.71017081
0.37097278 0.17315397 -0.68305629
0.37073898 0.1710953 -0.6746484
0.37185392 0.15965839 -0.67536926
0.36928856 0.15376019 -0.67153823
0.36163965 0.14726005 -0.66289508
0.35233569 0.14045146 -0.67316222
0.35642892 0.1385265 -0.66618311
0.35701394 0.13576779 -0.65834141
0.35090521 0.1354183 -0.67562401
0.35233307 0.13214277 -0.6684801
0.35306749 0.12926657 -0.66078836
0.347725 0.12608492 -0.67038
0.34864727 0.12349549 -0.66042072
0.34082454 0.11846865 -0.67235041
0.34163621 0.11465205 -0.66202295
0.3371357 0.10635901 -0.66427857
0.32785514 0.10019202 -0.66876757
0.31945109 0.094766974 -0.6774537
0.30499151 0.097379088 -0.70036703
0.30841675 0.094554782 -0.69267815
0.31272486 0.093719177 -0.68625307
0.31183118 0.091473475 -0.67760533
0.3006928 0.094003238 -0.70080227
0.30240986 0.09047471 -0.69395399
0.30438119 0.08954899 -0.68563735
0.3047986 0.090285122 -0.6789
0.29362234 0.086498126 -0.70264161
0.29613563 0.085288279 -0.69472343
0.29574099 0.082720809 -0.68649197
0.2832441 0.084185787 -0.71295422
0.28533646 0.083148532 -0.70482659
0.28591859 0.080385648 -0.69497651
0.26591006 0.089646153 -0.73230791
0.27215514 0.08458776 -0.72361678
0.27492437 0.080828644 -0.71517283
0.27572173 0.077937342 -0.70552832
0.26116985 0.085470952 -0.72998685
0.26286244 0.081903525 -0.72313362
0.25765294 0.079780757 -0.72574747
0.43164265 0.40163997 -0.8262803
0.4273245 0.39495784 -0.82815015
0.41925943 0.38417971 -0.82572705
0.41829881 0.37758464 -0.8279857
0.40760717 0.35764551 -0.82325381
0.42869776 0.28486064 -0.72075617
0.41905114 0.28342107 -0.73956901
0.42707911 0.28079206 -0.73117065
0.43096861 0.2750659 -0.7232607
0.43023726 0.2712436 -0.71906561
0.43012279 0.26682183 -0.71533424
0.39112067 0.31007987 -0.80124635
0.42462 0.26707268 -0.72553653
0.42436779 0.26626247 -0.71996373
0.38609639 0.30730197 -0.79876369
0.38487259 0.30689046 -0.79039127
0.37965462 0.30281556 -0.79948384
0.38209233 0.29843634 -0.79060471
0.38691214 0.29241225 -0.78563178
0.37742904 0.29393581 -0.79995674
0.37745631 0.28883973 -0.79374588
0.38055292 0.2829037 -0.78659493
0.38491392 0.18731607 -0.689201
0.38990429 0.18232058 -0.68750691
0.377031 0.1898943 -0.71287435
0.37961552 0.18525535 -0.70402378
0.37830496 0.18336712 -0.69231123
0.38416779 0.1755946 -0.68729472
0.38311839 0.17043859 -0.67313093
0.37515321 0.1739964 -0.6954636
0.36764431 0.16539244 -0.69571555
0.36941725 0.16199169 -0.68891263
0.37338698 0.15638813 -0.68101466
0.36518645 0.1579937 -0.69905084
0.36681873 0.15543123 -0.69486958
0.37196696 0.14605884 -0.67711061
0.3673352 0.14150257 -0.67174554
0.35983843 0.13749012 -0.68403149
0.3628757 0.13992344 -0.67738599
0.356341 0.13377766 -0.68494135
0.34916776 0.12771602 -0.67955887
0.34429237 0.11902609 -0.68291694
0.34048998 0.11264676 -0.68529928
0.33956704 0.10782173 -0.67830324
0.33681566 0.10392292 -0.6699872
0.33217114 0.099350363 -0.67954087
0.31942174 0.098506629 -0.69539052
0.32213145 0.097260214 -0.68763715
0.32442129 0.097116977 -0.68220836
0.31072044 0.10077805 -0.712883
0.309288 0.10007538 -0.70450383
0.31093177 0.098155819 -0.69570738
0.29830396 0.097734645 -0.72583944
0.30098841 0.095592707 -0.71561158
0.29958862 0.093606286 -0.70693135
0.2923336 0.093726106 -0.72713441
0.29378453 0.090946086 -0.71580637
0.29611292 0.088938393 -0.70525843
0.27943823 0.091516078 -0.74454463
0.28538743 0.090469278 -0.73483682
0.28636789 0.088785291 -0.72588718
0.28685835 0.087319076 -0.71656293
0.27827969 0.089338124 -0.73627084
0.27634427 0.087491654 -0.72748905
0.4367345 0.42420369 -0.86578274
0.42994341 0.38025001 -0.83368969
0.41993386 0.36816937 -0.83157784
0.41745219 0.36267012 -0.82799625
0.41276178 0.35624337 -0.82708931
0.40607822 0.35187209 -0.82518524
0.40667942 0.34264752 -0.82070589
0.42717797 0.27418178 -0.7373206
0.42963967 0.27232385 -0.72817963
0.39970395 0.31334212 -0.8068077
0.4188779 0.27709222 -0.74542797
0.42544726 0.26939234 -0.74207377
0.42723578 0.26618257 -0.73541939
0.39131257 0.30790913 -0.81030804
0.41458055 0.27572903 -0.75364649
0.41765282 0.27131903 -0.74785918
0.42263976 0.26514244 -0.74341482
0.42293793 0.26106414 -0.73389918
0.42223293 0.25708842 -0.72595257
0.38247052 0.30181178 -0.80859917
0.41725391 0.25094903 -0.73740214
0.41709769 0.24943143 -0.72937524
0.38034663 0.2934711 -0.81157428
0.3793776 0.28817573 -0.80809462
0.38952953 0.27571189 -0.78397971
0.41531095 0.24041013 -0.73049378
0.38035372 0.27669087 -0.80205321
0.38071066 0.27469239 -0.79471713
0.38382286 0.27028599 -0.78888553
0.38571432 0.1962793 -0.72707254
0.37739116 0.19239804 -0.72367287
0.3920697 0.17319098 -0.68727607
0.39195377 0.16879353 -0.68356764
0.37768319 0.18020675 -0.71825713
0.37830961 0.1746902 -0.70838439
0.3774693 0.16931365 -0.70295936
0.37052643 0.16495052 -0.70309192
0.37564269 0.15266168 -0.68712336
0.36896345 0.15851524 -0.7122308
0.36623722 0.15436801 -0.70553225
0.36908448 0.14902699 -0.69518179
0.37437543 0.1438683 -0.68868446
0.37263715 0.13974057 -0.68111575
0.36894202 0.13773917 -0.68719965
0.35641035 0.12796743 -0.68838352
0.35263291 0.1216042 -0.69075036
0.34439042 0.11545793 -0.70377773
0.34592938 0.11614762 -0.69566661
0.3383559 0.11006951 -0.70681089
0.34160638 0.11053318 -0.69532043
0.34138691 0.10656916 -0.6892454
0.33007339 0.10994498 -0.71425116
0.33324292 0.10574684 -0.70853347
0.3363381 0.10349259 -0.69857979
0.33617643 0.10103836 -0.69060087
0.3380698 0.10110661 -0.68496758
0.32527179 0.10424951 -0.71583724
0.32505226 0.10180877 -0.70793897
0.3285355 0.099334151 -0.69819194
0.31437701 0.10238472 -0.72543395
0.31253886 0.10159414 -0.71918142
0.30212384 0.09848959 -0.73573005
0.30684274 0.09892457 -0.72791976
0.28148243 0.11530729 -0.78013647
0.29357174 0.095462367 -0.74668944
0.29395741 0.095300458 -0.73791325
0.2751773 0.11219923 -0.77716619
0.27882504 0.10778841 -0.77155483
0.28287157 0.10406711 -0.76865441
0.28689823 0.097745709 -0.75833964
0.2865158 0.094399095 -0.74812132
0.28535157 0.092279769 -0.73990554
0.45061743 0.42180318 -0.86009246
0.44610146 0.41982564 -0.86286962
0.45469239 0.40651992 -0.8427425
0.45207053 0.40140876 -0.83909333
0.4345448 0.41898826 -0.86726642
0.44694465 0.39691949 -0.83666915
0.44129997 0.38671878 -0.83789879
0.42785695 0.3948223 -0.86440665
0.43698147 0.3765181 -0.84099478
0.4279514 0.37148884 -0.83915251
0.42538452 0.36281964 -0.83935469
0.42292547 0.35740638 -0.83582145
0.41561693 0.35337237 -0.8381108
0.41722724 0.35548794 -0.83058834
0.40326244 0.35617185 -0.85466951
0.40723115 0.35476273 -0.85044146
0.41094995 0.34959614 -0.84494513
0.41161278 0.34443128 -0.8339023
0.41219059 0.3125242 -0.81448877
0.40220764 0.31102163 -0.81528586
0.39632803 0.30464295 -0.8204245
0.41811591 0.2661539 -0.76172537
0.41856629 0.26417446 -0.75429493
0.42032579 0.26098812 -0.74769551
0.42144933 0.25837597 -0.74063283
0.38965011 0.29768699 -0.81854814
0.4204661 0.2541351 -0.75100195
0.41888788 0.25059849 -0.74375999
0.38312072 0.28919241 -0.8217479
0.3986426 0.26505339 -0.7830472
0.41469932 0.2431995 -0.74054563
0.41435075 0.24237485 -0.7350747
0.38018647 0.28126788 -0.82174689
0.3811895 0.27873448 -0.8148964
0.38151008 0.27679303 -0.80765343
0.39089876 0.26301262 -0.78788424
0.38307086 0.19647281 -0.73210496
0.38069266 0.18899322 -0.73527485
0.38047248 0.1803347 -0.72796357
0.38084581 0.17196836 -0.72364497
0.37977257 0.17059341 -0.71511149
0.37789181 0.16294992 -0.71467805
0.36870167 0.15576109 -0.72562474
0.36889479 0.15561602 -0.71780944
0.36224923 0.15192272 -0.72864568
0.36454839 0.14747655 -0.71987265
0.36472267 0.14434795 -0.70961356
0.36899936 0.1386459 -0.70212525
0.36981857 0.13584206 -0.6948263
0.35992357 0.14400716 -0.72922009
0.36194965 0.14048181 -0.72286808
0.36513269 0.13548483 -0.71471435
0.36688954 0.13134819 -0.70556563
0.36436772 0.12769219 -0.69761944
0.34824604 0.13404793 -0.73094624
0.34984097 0.13154404 -0.72686058
0.36074921 0.11853255 -0.70165461
0.34905571 0.12031538 -0.71682543
0.34976006 0.11723898 -0.70870745
0.33885753 0.11308943 -0.7174626
0.34155148 0.11311103 -0.71026319
0.3309803 0.10732698 -0.72809643
0.33050862 0.10864248 -0.72120112
0.32460558 0.10456606 -0.73153698
0.32383916 0.10396828 -0.72159725
0.31683764 0.10015064 -0.73346508
0.30675766 0.10049863 -0.75091392
0.30929741 0.098470628 -0.74095762
0.2866362 0.12482604 -0.79954934
0.28425017 0.11999187 -0.78998095
0.29180005 0.11629187 -0.78508699
0.28551492 0.11070884 -0.77476424
0.29074097 0.10466972 -0.76757419
0.29601479 0.10010252 -0.75874579
0.2979719 0.098032691 -0.75059283
0.45514104 0.4152967 -0.85504967
0.45873487 0.40999487 -0.84958363
0.44703078 0.41072953 -0.86585832
0.45222366 0.40877363 -0.86027068
0.45396277 0.40421441 -0.85106027
0.44445935 0.40223855 -0.86837333
0.45182958 0.39490074 -0.85147429
0.44922 0.39224464 -0.84536767
0.43518439 0.39815488 -0.86894011
0.44761994 0.38354093 -0.84482068
0.43624759 0.37552151 -0.85648704
0.43809092 0.37480962 -0.84850961
0.43038034 0.37256643 -0.85858095
0.43067959 0.36975095 -0.85031199
0.426404 0.36856505 -0.86038101
0.42787099 0.36183178 -0.85274827
0.42830062 0.36028263 -0.8457188
0.41979837 0.3609004 -0.85980713
0.42100552 0.35520235 -0.85683119
0.42183709 0.35239318 -0.84520978
0.41209152 0.35839856 -0.85989368
0.41446921 0.35466585 -0.85380292
0.40981999 0.34482658 -0.85416555
0.41430935 0.33847243 -0.84671485
0.41436389 0.33717299 -0.83948886
0.41790673 0.32431117 -0.83177453
0.41928488 0.32161084 -0.82519281
0.4156011 0.3158671 -0.82598197
0.41494086 0.31417874 -0.81955224
0.39734873 0.32114273 -0.85343754
0.40039417 0.31676376 -0.84770912
0.40751353 0.30773664 -0.82790947
0.40853173 0.31010124 -0.82016098
0.39170396 0.31587633 -0.85209793
0.39562061 0.31067085 -0.84676272
0.39761472 0.30553344 -0.83774769
0.39885998 0.30369887 -0.82906872
0.39222878 0.29935518 -0.83931929
0.39329574 0.29539451 -0.83143133
0.39088187 0.29272914 -0.82422322
0.40652299 0.26906678 -0.78837961
0.41431227 0.26143554 -0.77875865
0.41782337 0.25744388 -0.77123761
0.41988868 0.25678235 -0.76088893
0.42163184 0.24646315 -0.75495541
0.38706294 0.28774869 -0.83344293
0.40816328 0.25629541 -0.78157133
0.41898596 0.24058549 -0.74865609
0.42426917 0.2261856 -0.74010986
0.38331515 0.28067061 -0.83299762
0.38139191 0.28129297 -0.82722133
0.39007789 0.19335589 -0.74916524
0.38836831 0.1938893 -0.74076211
0.38655764 0.18242837 -0.74321783
0.38150141 0.17705871 -0.74453092
0.38341999 0.1751828 -0.73544598
0.37336373 0.17589802 -0.75146651
0.37591049 0.17205837 -0.74551153
0.38060448 0.16726834 -0.73875523
0.38264349 0.16260628 -0.72823781
0.37922093 0.15909128 -0.72119874
0.3683002 0.17052321 -0.75278378
0.3699986 0.16554481 -0.74813211
0.37488729 0.15656883 -0.73102832
0.36609361 0.15822357 -0.74981254
0.36538818 0.15288261 -0.74081582
0.36106855 0.14121485 -0.73402351
0.36362857 0.13379399 -0.72707224
0.36822948 0.1279718 -0.71995407
0.36886662 0.12452034 -0.71015352
0.35321152 0.13419946 -0.74411124
0.35460183 0.13504146 -0.73631006
0.35756198 0.12968302 -0.72638386
0.36172003 0.1234635 -0.7203052
0.36417723 0.11825236 -0.71311384
0.3677184 0.11885206 -0.71000326
0.35072416 0.1277879 -0.73801732
0.35080159 0.12250869 -0.72814411
0.34843227 0.11804709 -0.72189397
0.34585825 0.11285344 -0.72987783
0.34652394 0.11361623 -0.72372925
0.33530137 0.10856159 -0.73178631
0.29658297 0.15955386 -0.83015037
0.29560107 0.15303457 -0.82733667
0.32851079 0.10351636 -0.74319029
0.29171398 0.14542404 -0.82443964
0.29283386 0.14049055 -0.82137549
0.31693456 0.10583052 -0.75983393
0.31812453 0.10271855 -0.75311583
0.32028899 0.099431261 -0.7447992
0.29419079 0.12951081 -0.81015944
0.29533312 0.12645157 -0.80354416
0.29848471 0.12150391 -0.79547095
0.30125225 0.11758116 -0.78961128
0.29859304 0.10862021 -0.77632785
0.30137151 0.10468581 -0.77044493
0.30832374 0.10310386 -0.76165903
0.29539686 0.11192783 -0.77957708
0.30175307 0.10194928 -0.76329482
0.45389596 0.40110478 -0.85960847
0.44961593 0.39645302 -0.86406946
0.45152405 0.39167231 -0.85503834
0.44476029 0.38953978 -0.86508507
0.4497433 0.3850162 -0.85793144
0.44763967 0.37999183 -0.84857827
0.44163904 0.38165924 -0.86491448
0.44414115 0.37779027 -0.85898697
0.4444361 0.37653705 -0.85194606
0.43566757 0.37746575 -0.86576211
0.43659338 0.37575394 -0.86144328
0.42581862 0.3542594 -0.85430223
0.42816395 0.35311654 -0.84822011
0.41461381 0.33586809 -0.85526359
0.41629067 0.32851815 -0.84540755
0.41765499 0.32542208 -0.83648801
0.41075397 0.32199857 -0.85718763
0.41238847 0.32248604 -0.84964663
0.41478047 0.31876129 -0.83958691
0.41429657 0.31358743 -0.83271056
0.40286422 0.3221266 -0.85118526
0.40422124 0.31597349 -0.84591198
0.40841439 0.31191197 -0.84196591
0.41034839 0.3084811 -0.83494514
0.40086055 0.30759519 -0.84085709
0.39395764 0.30162543 -0.84728271
0.39147925 0.29625365 -0.84380883
0.41278315 0.26236266 -0.78712457
0.42142573 0.24879478 -0.76498556
0.38891113 0.28867504 -0.84625715
0.38774285 0.2854012 -0.84220034
0.4132421 0.24677521 -0.78327358
0.41708609 0.24502619 -0.77674478
0.42269564 0.2411637 -0.76885086
0.42318353 0.2385686 -0.75911599
0.42329749 0.22981854 -0.75218815
0.42335051 0.22809614 -0.74459416
0.37790072 0.28682324 -0.85743707
0.38179675 0.28249773 -0.85017061
0.38474908 0.27775413 -0.84208256
0.38672864 0.27060881 -0.8347711
0.38634208 0.26876357 -0.82501024
0.38913366 0.26413587 -0.81678408
0.39331809 0.25830239 -0.80929041
0.39645201 0.2533825 -0.8012625
0.4040674 0.25048879 -0.79054099
0.42370677 0.22253345 -0.75307572
0.42439705 0.22025132 -0.745956
0.36976889 0.28279969 -0.86128789
0.37097424 0.2806567 -0.85712034
0.37589648 0.27599591 -0.85264426
0.40776211 0.20434906 -0.75784343
0.41063643 0.20393889 -0.75320774
0.40148216 0.19450291 -0.74981046
0.39390245 0.19309933 -0.761608
0.39589027 0.19393058 -0.75423479
0.38906312 0.18670297 -0.76348668
0.38937178 0.18307404 -0.7550689
0.3868877 0.17987806 -0.74748015
0.38106951 0.17916423 -0.76323807
0.38153449 0.17976058 -0.75460052
0.37477031 0.17184804 -0.76518667
0.37464663 0.17639811 -0.75726432
0.38153186 0.16180387 -0.73803753
0.38239545 0.15981412 -0.73354954
0.36958688 0.16672237 -0.75883162
0.37096354 0.16008401 -0.74737298
0.37553608 0.15781143 -0.74124157
0.36607012 0.15753844 -0.75870842
0.36419058 0.15371814 -0.75157648
0.36123809 0.14928651 -0.76153737
0.36560357 0.1471529 -0.75534332
0.36580065 0.14408633 -0.74554175
0.36516622 0.13663262 -0.74063712
0.35751817 0.13466291 -0.75661099
0.36113757 0.13298915 -0.74998456
0.35194847 0.13246723 -0.75614655
0.35169113 0.12757382 -0.75002086
0.35220668 0.12142834 -0.74188131
0.3526932 0.11880323 -0.7347039
0.34057426 0.13429028 -0.77470237
0.34123322 0.12964188 -0.77157491
0.34270948 0.12142149 -0.75918782
0.3450048 0.12047651 -0.75176024
0.34605965 0.11673442 -0.74250007
0.34766117 0.11346185 -0.736013
0.30602166 0.16031197 -0.83422607
0.31037474 0.15544991 -0.82910293
0.33575958 0.12036797 -0.76910865
0.33597594 0.11787309 -0.76193583
0.33852077 0.11328927 -0.75361109
0.34088171 0.10879412 -0.74515212
0.34262913 0.10812046 -0.73732203
0.3018575 0.15206325 -0.8253625
0.30819234 0.14402229 -0.82112807
0.32473457 0.11621729 -0.77944279
0.32712704 0.11402662 -0.77181423
0.32736036 0.11182999 -0.76258719
0.32894263 0.10773811 -0.753685
0.33201212 0.1063334 -0.7466566
0.30045775 0.13882335 -0.82003623
0.30472055 0.13265717 -0.81373632
0.30668694 0.12776394 -0.80640227
0.30828619 0.12164612 -0.7977162
0.31260791 0.11611083 -0.79032016
0.31798214 0.11267088 -0.78221488
0.31912008 0.10881594 -0.7731874
0.31811446 0.10687688 -0.76537126
0.29350117 0.13312536 -0.81930447
0.29343453 0.13154204 -0.8145563
0.30443418 0.11427385 -0.78637934
0.30719092 0.11036803 -0.78054732
0.31073138 0.10523188 -0.77270764
0.41806579 0.32835573 -0.85577857
0.41609654 0.32345703 -0.85727715
0.40003619 0.29686984 -0.85483289
0.39688307 0.29223257 -0.85108209
0.38941559 0.28699017 -0.85709363
0.39357039 0.28871623 -0.85194385
0.42169476 0.23561299 -0.77121019
0.42479724 0.23074244 -0.76326281
0.40876216 0.24116817 -0.80090708
0.41624296 0.23832551 -0.79039001
0.41548452 0.23362181 -0.78158325
0.41823483 0.22905619 -0.77346057
0.42468268 0.2225994 -0.76803893
0.42415845 0.21856111 -0.76068324
0.42458934 0.21435955 -0.75176275
0.3752712 0.27590933 -0.8693772
0.37855664 0.26870146 -0.85228288
0.38498247 0.26595512 -0.84740728
0.39084092 0.2606408 -0.83923876
0.39427307 0.25550342 -0.8315267
0.39833859 0.25037476 -0.82651234
0.4132967 0.22161998 -0.7773872
0.41452578 0.21648785 -0.76845413
0.41865 0.21260089 -0.76107067
0.42073363 0.20760451 -0.75129795
0.37501782 0.26815793 -0.86462003
0.40548134 0.21759003 -0.78934819
0.41300184 0.20931262 -0.77058804
0.4114399 0.2063432 -0.76152778
0.40226158 0.20014548 -0.77504861
0.40573141 0.19838019 -0.76467568
0.40570641 0.19557007 -0.75605088
0.3941496 0.19857226 -0.77929771
0.39523211 0.19586268 -0.7726289
0.39903054 0.19411056 -0.76615149
0.38945696 0.18922722 -0.77601308
0.38840866 0.18410031 -0.76829958
0.38507584 0.17966981 -0.77785289
0.3838025 0.17857863 -0.76980543
0.37982944 0.17398728 -0.77653641
0.37791753 0.17106727 -0.77195162
0.36602646 0.17167296 -0.79608166
0.3744033 0.15918547 -0.76946568
0.31489989 0.23330027 -0.90730673
0.36048296 0.17039058 -0.79810613
0.36111203 0.16363962 -0.7914539
0.36317629 0.15993577 -0.78461337
0.36658657 0.15511021 -0.77404439
0.36761031 0.15513197 -0.76596147
0.36164525 0.1498639 -0.7753287
0.36172011 0.14813811 -0.76971412
0.36522681 0.14179012 -0.75798577
0.36856183 0.13518097 -0.75197083
0.35308376 0.14162952 -0.78174514
0.35734743 0.14116074 -0.76903796
0.36092588 0.13728073 -0.76001424
0.34488374 0.13752812 -0.78532207
0.34752935 0.13799438 -0.77656084
0.3511107 0.13401376 -0.76925296
0.35245585 0.1295305 -0.76158142
0.33705738 0.130088 -0.79241991
0.34002516 0.13101529 -0.78281838
0.3443127 0.12632409 -0.76845551
0.34718516 0.12352117 -0.76316363
0.31513819 0.15112671 -0.8265453
0.32145393 0.14515536 -0.82242244
0.32492894 0.14009437 -0.81472647
0.32635918 0.13352372 -0.80727965
0.3298859 0.13061942 -0.80312979
0.33136594 0.1260663 -0.79566693
0.33660126 0.12374066 -0.78327942
0.33652779 0.12151152 -0.77435958
0.31412309 0.14321466 -0.81911039
0.31518948 0.1375792 -0.81377459
0.31974071 0.13127233 -0.80772609
0.32333881 0.12489501 -0.80246186
0.326832 0.12076571 -0.79297709
0.32852876 0.11876009 -0.78289479
0.33117056 0.11645203 -0.77544117
0.31369677 0.12645009 -0.80495423
0.31802046 0.12171704 -0.79997891
0.31991783 0.11750559 -0.79145837
0.40640613 0.28531471 -0.8646962
0.4044241 0.2861951 -0.8592155
0.40005505 0.28425208 -0.86184818
0.41920266 0.23115332 -0.80211556
0.41950855 0.22871137 -0.79273099
0.39066046 0.25559384 -0.84622741
0.39513823 0.24958926 -0.83909613
0.3996003 0.24360937 -0.83200508
0.40338901 0.24131028 -0.82333958
0.40677989 0.23623496 -0.81573099
0.40993047 0.23192404 -0.81036752
0.41579002 0.22079119 -0.7919448
0.41330445 0.2192765 -0.7849676
0.3814992 0.26426575 -0.87416792
0.3802346 0.26206246 -0.85997349
0.38651201 0.25508729 -0.85587895
0.39009911 0.24677315 -0.84950751
0.39363024 0.24522139 -0.84309274
0.40010038 0.23480219 -0.82542902
0.40242997 0.23062141 -0.81728214
0.40756923 0.22412407 -0.81065506
0.40868974 0.21731511 -0.80078608
0.40638232 0.21803021 -0.79468685
0.40916356 0.21287037 -0.78428638
0.41257313 0.20697525 -0.77794665
0.4121978 0.20326629 -0.7705586
0.40481088 0.20741135 -0.79558653
0.40506974 0.20401345 -0.78742993
0.4090513 0.20149828 -0.77877653
0.39873615 0.19696009 -0.78921896
0.39463004 0.18904419 -0.79104865
0.39091381 0.18617658 -0.78435099
0.38304842 0.18476011 -0.80192763
0.38697913 0.18223365 -0.79332471
0.38637358 0.18071714 -0.78583294
0.37625757 0.18357565 -0.8115449
0.38002387 0.17830531 -0.80418015
0.38103616 0.17495868 -0.7953164
0.38024765 0.17284016 -0.78536385
0.37944862 0.16850384 -0.77907819
0.36922449 0.17708848 -0.81293911
0.36889783 0.17460728 -0.80341154
0.3724384 0.17020626 -0.79463685
0.37444702 0.16541184 -0.78748244
0.37768641 0.16049588 -0.7797628
0.31965953 0.22858536 -0.90441108
0.36410403 0.17000915 -0.81412417
0.3617793 0.16739871 -0.80599767
0.36247775 0.16274413 -0.79937524
0.36809179 0.16048031 -0.7855587
0.37036419 0.15759112 -0.78205216
0.36186346 0.15967633 -0.8086105
0.36195022 0.15405551 -0.80057895
0.3625361 0.15084857 -0.79148346
0.36240539 0.14737588 -0.78315085
0.35794154 0.14491594 -0.80122262
0.35811338 0.14263739 -0.79429197
0.35879558 0.14277166 -0.78628308
0.34740782 0.14302084 -0.81208497
0.35013726 0.13958706 -0.80454659
0.34989354 0.13678609 -0.79507095
0.32893708 0.15061271 -0.83723575
0.32997748 0.14703526 -0.82856715
0.33562991 0.14339271 -0.82081461
0.33807725 0.13897292 -0.81274915
0.34033597 0.13465483 -0.80456656
0.34107518 0.13235861 -0.79594195
0.42208242 0.22761324 -0.79903907
0.4149113 0.22663416 -0.80842733
0.41889793 0.2216403 -0.80362439
0.42036417 0.22181472 -0.79600972
0.38938525 0.24816802 -0.866207
0.38872242 0.24707012 -0.8591494
0.39671838 0.2390216 -0.843467
0.40079126 0.23370238 -0.83741635
0.40326726 0.22610751 -0.82955205
0.40484896 0.22255513 -0.82112241
0.4075045 0.21811895 -0.81322557
0.40962213 0.21770595 -0.80604422
0.38843173 0.24123527 -0.86127675
0.38908327 0.23601142 -0.85593343
0.39585108 0.23122472 -0.84886676
0.40748924 0.20997338 -0.81587338
0.40763798 0.2067406 -0.80784857
0.4063383 0.20302409 -0.80140918
0.39948446 0.20366944 -0.81786567
0.40229592 0.19911107 -0.81010693
0.40315664 0.19603994 -0.80123383
0.39805946 0.18899864 -0.80242455
0.39504537 0.1856996 -0.79623628
0.38515505 0.18581398 -0.81239462
0.38992247 0.18556301 -0.80306619
0.37790871 0.18384147 -0.82129014
0.37146303 0.17820601 -0.82330513
0.33324131 0.21760286 -0.90448219
0.36503971 0.1713891 -0.82497728
0.36245477 0.16829452 -0.81802738
0.36308032 0.16371888 -0.82533097
0.36143482 0.15998632 -0.81885833
0.36015588 0.15526727 -0.81022632
0.35884839 0.15004392 -0.82012153
0.35589471 0.14976853 -0.81177258
0.35719615 0.14681408 -0.80549002
0.34708363 0.14673877 -0.82949251
0.34857869 0.14633982 -0.8222028
0.34933209 0.14641583 -0.81448853
0.33228704 0.15079741 -0.84546483
0.34168631 0.14755993 -0.83834696
0.33957085 0.14666453 -0.83061111
0.39301106 0.24675289 -0.8744303
0.40274477 0.22933351 -0.84074038
0.39044774 0.23688219 -0.86884356
0.3951984 0.22635801 -0.85313177
0.40211111 0.2214748 -0.84623891
0.40452671 0.21727329 -0.83840209
0.40810704 0.21237808 -0.82952082
0.4060024 0.20856185 -0.8221435
0.3886888 0.22964998 -0.86805129
0.38832179 0.22823896 -0.86122882
0.39459726 0.22150987 -0.85735172
0.39689353 0.21390389 -0.84840035
0.40002379 0.20913169 -0.8409363
0.40242904 0.20492435 -0.8331067
0.40048948 0.20467144 -0.8252933
0.39861685 0.19860534 -0.83254117
0.39828429 0.19706289 -0.82556283
0.40138316 0.19027399 -0.81637216
0.40032369 0.18492459 -0.81080097
0.39423364 0.18366401 -0.81779742
0.38366154 0.1821993 -0.82908195
0.33430663 0.24297631 -0.94090027
0.33819136 0.23538685 -0.93653017
0.37084714 0.19241807 -0.86013526
0.37344149 0.18867329 -0.85463703
0.37774152 0.17711252 -0.83769363
0.37581831 0.17715693 -0.83227241
0.343889 0.2181451 -0.91467804
0.36948153 0.1703684 -0.83730912
0.37105709 0.172103 -0.83351099
0.36176226 0.16590613 -0.84946615
0.36258918 0.16619591 -0.84047461
0.36332935 0.1617357 -0.83305448
0.36450455 0.15733273 -0.82838047
0.35251802 0.16384645 -0.85865188
0.35523486 0.16161352 -0.85174847
0.35748646 0.15855584 -0.84424645
0.36122042 0.15341915 -0.83703703
0.36203957 0.15012988 -0.82845289
0.34484825 0.16345805 -0.86742806
0.34665903 0.16024305 -0.86160326
0.34940803 0.15573855 -0.85396588
0.3515631 0.15159979 -0.84606338
0.35255891 0.14827928 -0.83603704
0.34307113 0.15381883 -0.8611095
0.34340543 0.14950249 -0.85464185
0.34303874 0.14888664 -0.84564579
0.40295249 0.27643847 -0.90880358
0.404405 0.25169852 -0.88586909
0.3991051 0.25233364 -0.89444506
0.40092397 0.24921639 -0.88869613
0.3988885 0.24340679 -0.88345224
0.39685312 0.23756379 -0.87817895
0.39482242 0.23279379 -0.87728113
0.39066318 0.22625636 -0.87435514
0.39071703 0.22046193 -0.86448967
0.39569211 0.21598879 -0.85638553
0.38915759 0.21876407 -0.87690711
0.38993853 0.2137915 -0.87025273
0.39177212 0.20843439 -0.86097801
0.39448062 0.20423034 -0.85184425
0.3987003 0.1986492 -0.84495968
0.40092123 0.19384825 -0.83826447
0.40060359 0.18959291 -0.82918245
0.40134633 0.1872251 -0.82278615
0.38412467 0.20663275 -0.87356955
0.38644537 0.20190844 -0.86366695
0.38896745 0.1970219 -0.85381347
0.39199838 0.19161689 -0.8474918
0.398112 0.18297201 -0.83151692
0.39893436 0.18334857 -0.82398361
0.37703207 0.20005561 -0.87266076
0.37921926 0.19539385 -0.86268473
0.38119912 0.19148484 -0.85476106
0.38488537 0.18634015 -0.84760135
0.38856301 0.18119796 -0.84045398
0.38971475 0.18129437 -0.8331449
0.34391204 0.2379839 -0.9406088
0.34451929 0.2294559 -0.9341495
0.34840316 0.22536029 -0.93111509
0.36976019 0.19417016 -0.87386107
0.37033436 0.1899083 -0.86428732
0.37413305 0.18263197 -0.85713756
0.37691349 0.18090059 -0.84844583
0.37854406 0.17783761 -0.84253782
0.35097262 0.21177234 -0.91273409
0.35237455 0.20273027 -0.90660191
0.3679311 0.18718414 -0.87623626
0.37032431 0.18297492 -0.86856276
0.37375304 0.17804433 -0.86132264
0.37454495 0.1722526 -0.85072571
0.37264377 0.17090611 -0.84434873
0.34684214 0.20111683 -0.90660238
0.35152036 0.19657393 -0.90395391
0.3556866 0.18184675 -0.88612121
0.35707471 0.17895621 -0.88022196
0.36153299 0.17492323 -0.8719694
0.36616546 0.16788787 -0.86088389
0.36703271 0.16690603 -0.8532567
0.34620366 0.18362904 -0.89378721
0.34820282 0.17875938 -0.88629121
0.35181344 0.17398977 -0.87800032
0.35378727 0.16908109 -0.86903727
0.35653254 0.16572079 -0.86183125
0.35792676 0.16436388 -0.8543973
0.34295624 0.17280491 -0.88301581
0.34556055 0.16908872 -0.87753087
0.34575245 0.16692619 -0.87110817
0.40502235 0.27727303 -0.91438884
0.40885442 0.27989 -0.91384441
0.40487036 0.27130884 -0.91623825
0.40381226 0.25826684 -0.91125268
0.40886199 0.25085187 -0.90048689
0.40808442 0.25002244 -0.89380038
0.40048185 0.25273451 -0.90822071
0.39884815 0.24912268 -0.90011823
0.40076557 0.24340039 -0.89068282
0.39812967 0.24183494 -0.90019232
0.39768669 0.23689206 -0.89398581
0.39838111 0.23363629 -0.88526362
0.39447418 0.22990109 -0.89582068
0.39450637 0.22596692 -0.88674712
0.39231488 0.22316279 -0.88044447
0.39078146 0.21822689 -0.88827765
0.38888171 0.21592064 -0.88105947
0.38359138 0.21059652 -0.89014959
0.38369498 0.20931551 -0.88202089
0.39752921 0.19045016 -0.84563541
0.39908141 0.18469328 -0.84090704
0.37376636 0.20916076 -0.89885026
0.374984 0.20700087 -0.89121056
0.37749782 0.20273738 -0.88363308
0.35586268 0.22775269 -0.93983316
0.35922825 0.22345333 -0.93465465
0.35742092 0.2168746 -0.92760623
0.36697024 0.20399712 -0.90206712
0.3678101 0.20113866 -0.89245814
0.37090802 0.19643934 -0.88509631
0.34836337 0.21858156 -0.92867607
0.35385242 0.2133556 -0.92618775
0.35690638 0.20991769 -0.92299366
0.35835096 0.20459777 -0.90887791
0.35910535 0.19882804 -0.90164387
0.36240435 0.19399638 -0.89435756
0.36451191 0.18999846 -0.88663471
0.36567238 0.18595798 -0.87956983
0.36778602 0.17991461 -0.87177193
0.37245548 0.17530926 -0.86219406
0.37398806 0.17052272 -0.8570466
0.35302588 0.19152334 -0.90118974
0.35620406 0.18741491 -0.89597052
0.35838223 0.18447706 -0.88866055
0.361772 0.18118037 -0.88002694
0.36395228 0.17775756 -0.87444186
0.36630818 0.17133388 -0.86602342
0.41906157 0.29885909 -0.94412315
0.42191651 0.29480127 -0.93890208
0.42439157 0.29069814 -0.93151104
0.42652142 0.28736004 -0.92605996
0.41245368 0.27442202 -0.92027575
0.40918189 0.25944069 -0.92024153
0.41305745 0.25209776 -0.9094997
0.4171007 0.25130042 -0.90382463
0.41993791 0.24605331 -0.89861715
0.40272656 0.25234237 -0.92199248
0.40141827 0.24852383 -0.91418302
0.40172055 0.24192718 -0.91407865
0.39841071 0.23894197 -0.90650821
0.39881685 0.23021521 -0.90642548
0.39677587 0.2245523 -0.9013164
0.39444664 0.21738493 -0.90125865
0.39215145 0.21676345 -0.8951233
0.38952434 0.21003823 -0.9032653
0.38807791 0.21056204 -0.89683604
0.35847959 0.23367795 -0.94706923
0.37989828 0.20585895 -0.9127723
0.38068372 0.20738903 -0.90629172
0.36529872 0.216548 -0.92828518
0.36802062 0.2093989 -0.92180943
0.37146991 0.20448425 -0.9147023
0.37355393 0.20391627 -0.90828592
0.43110475 0.27899402 -0.92448372
0.41943878 0.28614885 -0.9442628
0.42104194 0.28132719 -0.93538618
0.42443544 0.27669495 -0.92695701
0.42996651 0.26969346 -0.92071426
0.41340676 0.27944544 -0.94720447
0.4175173 0.27382851 -0.94041836
0.41961339 0.27004287 -0.92996848
0.40759066 0.27290267 -0.94882494
0.41419557 0.26843956 -0.94395632
0.41381752 0.25918302 -0.92942435
0.41294596 0.2567223 -0.92429179
0.41432697 0.25586486 -0.91731024
0.42688337 0.24233694 -0.89830023
0.39701697 0.26131421 -0.94953537
0.40065613 0.25667039 -0.94459093
0.40549234 0.25212431 -0.93452257
0.39555562 0.25678927 -0.95075715
0.39849904 0.25325978 -0.94761437
0.4007228 0.24785894 -0.93422312
0.40203738 0.24186204 -0.92741543
0.40600738 0.23569007 -0.92160201
0.40355438 0.23411691 -0.91453505
0.40270936 0.22807878 -0.91197962
0.40263021 0.2214392 -0.90970904
0.39806399 0.2161604 -0.9087978
0.38921776 0.21089774 -0.91643053
0.39030573 0.21112849 -0.90974498
0.37649757 0.2147457 -0.93405396
0.38040149 0.21112785 -0.92596275
0.38205987 0.20890002 -0.91733825
0.43754175 0.27193496 -0.92270797
0.42071524 0.26653898 -0.9362663
0.40758842 0.26361424 -0.94931012
0.41371214 0.26128775 -0.94343954
0.41795087 0.25687125 -0.93683386
0.41754243 0.25583169 -0.93067247
0.4330748 0.23929173 -0.89774501
0.40460739 0.26044995 -0.95008564
0.40707934 0.25683108 -0.94484299
0.4103075 0.25254861 -0.93984264
0.39644098 0.25029463 -0.95263094
0.40157077 0.24727693 -0.94733715
0.40483391 0.2415849 -0.94278347
0.40263733 0.24001032 -0.93454993
0.40388763 0.23001875 -0.93551344
0.40434468 0.22757861 -0.92767215
0.40548021 0.22368693 -0.9189598
0.40415224 0.21940845 -0.93022203
0.40226889 0.21552134 -0.9204542
0.3930546 0.20908445 -0.93266112
0.39635596 0.20997193 -0.92262834
0.37680435 0.21845725 -0.94812399
0.38439205 0.21041603 -0.9424004
0.38674432 0.21068567 -0.92951256
0.40342435 0.23774385 -0.95228779
0.40693605 0.23053187 -0.94826108
0.40646279 0.229413 -0.94225067
0.40436962 0.22242104 -0.94981152
0.4030526 0.22069553 -0.94255215
0.40461493 0.2157196 -0.93462187
0.39671177 0.22233126 -0.96055597
0.39517006 0.21712841 -0.95783782
0.40057725 0.21076548 -0.94469845
0.40038434 0.2083468 -0.93810737
0.40364471 0.20838752 -0.93151373
0.38782537 0.2088967 -0.94731855
0.40040228 0.22476166 -0.96001673
0.40317106 0.22295241 -0.95514357
0.39770818 0.21566992 -0.95526689
0.3996281 0.20990314 -0.94908869
0.44813719 0.3252672 -1.0250001
0.44743961 0.32241118 -1.016
0.4511205 0.32596901 -1.0170001
0.44114187 0.31697485 -1.0090001
0.43598941 0.31100604 -0.99000007
0.44136176 0.31574717 -0.99500006
0.42890009 0.30505294 -0.98100007
0.43426445 0.3075504 -0.97900003
0.4278397 0.30101043 -0.96800005
0.43266016 0.30621439 -0.96500003
0.41884431 0.29484835 -0.95800006
0.42536259 0.2963627 -0.95550007
0.43195418 0.30464047 -0.96000004
0.41607893 0.28642958 -0.9436667
0.42571074 0.29439133 -0.94480008
0.4264034 0.30160946 -0.94100004
0.40956581 0.23585503 -0.93000007
0.41407052 0.23843107 -0.93080008
0.42187202 0.23907509 -0.93100005
0.41683346 0.24330631 -0.93300009
0.42317 0.24527164 -0.9320001
0.41845563 0.25067139 -0.93000007
0.42141891 0.25067139 -0.93000007
0.41187683 0.27724668 -0.93300009
0.41623336 0.28181112 -0.93500006
0.42277592 0.28641075 -0.93300003
0.42591739 0.29521275 -0.93500006
0.42413771 0.30298924 -0.93600005
0.40834308 0.22575133 -0.92500001
0.41396978 0.22736034 -0.92471439
0.42073154 0.22795059 -0.92200005
0.40912539 0.23264132 -0.92900002
0.41607454 0.23337759 -0.92800003
0.42431355 0.2353954 -0.92469996
0.42611 0.24541645 -0.92457145
0.41676989 0.25427607 -0.92516667
0.42237866 0.25199276 -0.92400002
0.41259858 0.26790679 -0.92133337
0.41594473 0.27482024 -0.92525005
0.42073154 0.2764256 -0.92200005
0.41800565 0.28000268 -0.92900002
0.42432076 0.28504661 -0.9234286
0.42504522 0.29549602 -0.92500001
0.42096573 0.30368337 -0.92900002
0.40163872 0.21676049 -0.91200006
0.41035646 0.21966641 -0.91200006
0.40675935 0.2208707 -0.91700006
0.4165279 0.2235485 -0.91600001
0.42367139 0.22832842 -0.91566676
0.42789361 0.23505573 -0.91533333
0.43069792 0.23710193 -0.91200006
0.45780164 0.23974469 -0.91100007
0.46505851 0.23974469 -0.91100007
0.42861527 0.24492586 -0.91642863
0.4320778 0.2450669 -0.9122858
0.45709002 0.24538948 -0.91175014
0.46266302 0.24436674 -0.91200006
0.41801175 0.25802499 -0.91925001
0.42584962 0.25515702 -0.91721427
0.43441921 0.2549682 -0.91250008
0.4563674 0.25453794 -0.91200012
0.46497402 0.25505793 -0.91290909
0.47234944 0.25647578 -0.91200012
0.41697031 0.26501876 -0.91937506
0.4262 0.26555139 -0.9170714
0.43460417 0.26366523 -0.91258335
0.45466453 0.26457459 -0.91290909
0.46506816 0.26524979 -0.91387504
0.47322297 0.26492384 -0.91275007
0.41981888 0.27142724 -0.92000002
0.425098 0.27491331 -0.91584611
0.45862046 0.27284113 -0.91166669
0.46515384 0.27404767 -0.91200012
0.47200489 0.27274171 -0.91133338
0.4274891 0.2849685 -0.91525006
0.43038309 0.28338933 -0.91133338
0.42406675 0.29526275 -0.91471434
0.41744006 0.30447853 -0.91266674
0.41744441 0.31507474 -0.91480005
0.42151746 0.31521574 -0.91100007
0.41653135 0.32280472 -0.91371435
0.40963727 0.21773949 -0.90400004
0.41447914 0.22013183 -0.90200007
0.42545676 0.22747415 -0.90549999
0.44847003 0.2285004 -0.90100002
0.45378304 0.22900763 -0.90300006
0.42928115 0.23342563 -0.90900004
0.43455169 0.23573793 -0.90572739
0.44538131 0.23514295 -0.90444446
0.45484796 0.23558195 -0.90800005
0.46398544 0.23665054 -0.90750009
0.43660128 0.24505705 -0.90916663
0.44500804 0.2448985 -0.90858334
0.45294976 0.24818015 -0.91000003
0.46663061 0.2445538 -0.90730011
0.47116637 0.24708925 -0.90600002
0.43797022 0.25225198 -0.90900004
0.44441539 0.25463739 -0.90864295
0.45125112 0.25384128 -0.9095
0.46983021 0.2508038 -0.90900004
0.47246653 0.25211561 -0.90850008
0.43652001 0.26742563 -0.90840006
0.44472873 0.26528379 -0.90899998
0.42959598 0.27417558 -0.90966672
0.43534741 0.27468398 -0.90656251
0.4448584 0.27430838 -0.90533346
0.45398295 0.27610675 -0.9075557
0.42954069 0.28910333 -0.90650004
0.43485016 0.28511235 -0.90453339
0.44545737 0.28365025 -0.90216678
0.45384482 0.28514832 -0.90312511
0.42638442 0.2952438 -0.90523076
0.43124482 0.29453039 -0.90100002
0.45306343 0.29510456 -0.90100002
0.42507502 0.30510634 -0.90588897
0.43254355 0.30401132 -0.9011429
0.4542118 0.30027214 -0.90100002
0.42509347 0.31485751 -0.90484619
0.41692331 0.32600912 -0.90642864
0.42235953 0.32305068 -0.90349996
0.39865142 0.21283883 -0.89550006
0.40704179 0.21484914 -0.89200002
0.41791809 0.221028 -0.89400005
0.42503843 0.2238766 -0.89400005
0.43433994 0.22568776 -0.89471436
0.44392237 0.22376131 -0.89514297
0.45076147 0.22320357 -0.89700007
0.43793541 0.23111448 -0.90000004
0.43793541 0.28846812 -0.90000004
0.44342506 0.28830788 -0.89950001
0.43632022 0.29494768 -0.89909101
0.4446114 0.29530755 -0.89900011
0.45083997 0.29563734 -0.90000004
0.43669552 0.30564544 -0.89871442
0.44479969 0.30591002 -0.89650011
0.45265582 0.3059074 -0.89650005
0.42837745 0.31787008 -0.898
0.4352062 0.31444672 -0.89664716
0.44476262 0.3147063 -0.89470005
0.45085099 0.31514919 -0.89433336
0.41490513 0.32868969 -0.89824998
0.42615023 0.32579038 -0.89683342
0.43507528 0.32504371 -0.89412504
0.44502839 0.32502976 -0.89408332
0.41513491 0.3325218 -0.89412504
0.42403838 0.33289051 -0.89522225
0.43452924 0.33317327 -0.89300007
0.44498792 0.33354637 -0.89400005
0.35950655 0.17831132 -0.88000005
0.36560297 0.18396878 -0.8821429
0.37254563 0.18833736 -0.88100004
0.37296692 0.19135988 -0.88200009
0.39212441 0.20728885 -0.88400006
0.40000758 0.21129394 -0.88900006
0.41487819 0.21726614 -0.88450003
0.42636636 0.2173602 -0.88200003
0.43559283 0.21635875 -0.8842001
0.4449783 0.21460651 -0.88428581
0.4502542 0.21525085 -0.88200003
0.42833391 0.22262448 -0.88900006
0.35685766 0.16568567 -0.87437505
0.36155525 0.1677516 -0.87366676
0.35889375 0.17380941 -0.87850004
0.36358958 0.17479086 -0.87500012
0.3705551 0.17967458 -0.87300003
0.36805975 0.18049783 -0.87700003
0.37343243 0.18528444 -0.87487507
0.37475717 0.19150667 -0.87200004
0.38768223 0.20494395 -0.87400007
0.39830881 0.20891717 -0.87900007
0.42798707 0.20979105 -0.87100005
0.43542778 0.20725344 -0.87200004
0.44439018 0.20755054 -0.87325007
0.45018935 0.20701577 -0.87100005
0.40647453 0.21226574 -0.87550002
0.41395429 0.21248497 -0.87066674
0.42298567 0.21354252 -0.875
0.43372971 0.21123621 -0.87700003
0.44821221 0.21147707 -0.87800002
0.45137647 0.21099535 -0.87600005
0.34825212 0.15584913 -0.86425006
0.35431129 0.15811159 -0.86460006
0.35984772 0.16130441 -0.86400008
0.3625637 0.16700131 -0.86500007
0.36662406 0.17364214 -0.8637501
0.37085962 0.17782226 -0.86400008
0.37473723 0.1849169 -0.86500007
0.37600446 0.1941532 -0.86316675
0.38121253 0.19949913 -0.86250007
0.43679044 0.19915217 -0.86100006
0.4433057 0.19869816 -0.86300009
0.39322546 0.20448235 -0.86325002
0.41807151 0.20762329 -0.86200005
0.42503244 0.20697097 -0.86500001
0.4361946 0.20353702 -0.86800003
0.444803 0.20275128 -0.86699998
0.45140445 0.20353702 -0.86800003
0.34263825 0.14820512 -0.85200006
0.34819037 0.15215981 -0.85900003
0.3532688 0.15370218 -0.85539997
0.36222813 0.16642933 -0.85500002
0.36821124 0.17389223 -0.85150003
0.37282377 0.17953025 -0.85900003
0.37438297 0.18545593 -0.85475004
0.37847197 0.19466209 -0.85733336
0.38334388 0.19776435 -0.85500002
0.42980078 0.19845825 -0.85800004
0.43577582 0.19732103 -0.85900003
0.44124988 0.19595252 -0.85900003
0.38970146 0.20025416 -0.85400003
0.39472014 0.20416364 -0.85900003
0.40424579 0.2061781 -0.85600007
0.41339764 0.20665984 -0.85800004
0.42334712 0.20208529 -0.85600007
0.34446502 0.14657369 -0.84650004
0.35059285 0.1496799 -0.84500003
0.35522068 0.15513021 -0.84533334
0.35909462 0.16198893 -0.84600008
0.36136261 0.16583452 -0.84500003
0.36501139 0.17040887 -0.84100002
0.37031433 0.17702226 -0.84700006
0.37358627 0.1847378 -0.84525001
0.37795472 0.19164295 -0.84800005
0.38470465 0.19568501 -0.84600008
0.39005402 0.19767478 -0.84300005
0.41875225 0.19656622 -0.84400004
0.395125 0.20089561 -0.84525007
0.40837148 0.20012316 -0.84200007
0.4134953 0.20131154 -0.84700006
0.32875115 0.11850014 -0.83399999
0.32703465 0.12101227 -0.83300006
0.33620372 0.1400944 -0.83600003
0.34428915 0.14479628 -0.83625007
0.35288623 0.15314272 -0.83450007
0.35777014 0.1622473 -0.83350003
0.36020735 0.16613367 -0.83300006
0.36729196 0.17654042 -0.83200008
0.37499484 0.18560126 -0.83460009
0.38258418 0.19192205 -0.83550006
0.39324 0.19658522 -0.8355
0.40338671 0.1996478 -0.84000003
0.41088444 0.19412321 -0.83350003
0.32922426 0.11781131 -0.82300001
0.32668185 0.12228765 -0.82375008
0.32976919 0.13480039 -0.82000005
0.33653373 0.13858621 -0.82700002
0.34432736 0.14378241 -0.82360011
0.35323334 0.15552118 -0.82600003
0.35633099 0.16112442 -0.82100004
0.36200741 0.16777474 -0.82800007
0.36565992 0.17445117 -0.82633334
0.3752349 0.18396993 -0.82375008
0.38001576 0.18865277 -0.82700002
0.38519785 0.19059394 -0.824
0.39518598 0.19361027 -0.82566673
0.40241718 0.19392294 -0.82700002
0.32735625 0.11825208 -0.81400001
0.32831118 0.12542126 -0.81566668
0.33131796 0.12556857 -0.81100005
0.32885414 0.13130099 -0.81450003
0.33417711 0.13438651 -0.81483334
0.34032452 0.13900137 -0.81400001
0.34508952 0.1448793 -0.81300002
0.34940669 0.1514096 -0.81100005
0.35357794 0.15728144 -0.81466675
0.35805178 0.1651374 -0.81500006
0.36539727 0.17332128 -0.81440002
0.37098578 0.1785491 -0.81300002
0.37480268 0.18260074 -0.81566668
0.38488841 0.18747476 -0.81499994
0.39414683 0.1879725 -0.81266671
0.40145284 0.18897481 -0.81700003
0.32792318 0.12010344 -0.80900002
0.33132347 0.12633021 -0.80600005
0.33558884 0.13373873 -0.80575001
0.34084278 0.13968158 -0.80300003
0.3451117 0.1451637 -0.80500007
0.34895262 0.15010272 -0.80400002
0.35288256 0.15588804 -0.80480003
0.35729939 0.16385528 -0.80550003
0.36275491 0.1689557 -0.80433339
0.36752328 0.17315888 -0.80400008
0.37208843 0.17706215 -0.80233335
0.37728134 0.18091924 -0.80433339
0.38518986 0.18358856 -0.80480003
0.39359084 0.18272173 -0.80100006
0.32461268 0.11658264 -0.79666662
0.32854974 0.12101308 -0.79800004
0.33082616 0.12567174 -0.79533339
0.33532944 0.13313597 -0.79449999
0.34576663 0.14619201 -0.79666668
0.34967229 0.15076569 -0.79400003
0.35275352 0.1554376 -0.79525006
0.35776439 0.16234194 -0.79699999
0.36356312 0.16618598 -0.79514295
0.36934084 0.17132823 -0.79550004
0.37491119 0.17601348 -0.79566669
0.38394052 0.17865121 -0.79425001
0.32777321 0.11979991 -0.79000002
0.32777184 0.12465638 -0.78100002
0.33154377 0.1293755 -0.78700006
0.33888513 0.13859026 -0.7895
0.34522086 0.14562362 -0.78675008
0.35489348 0.15595804 -0.78557152
0.35797948 0.16007492 -0.79000002
0.36600363 0.16450839 -0.78562504
0.37149495 0.16885146 -0.78400004
0.37523863 0.17236342 -0.78700006
0.38443166 0.17443974 -0.78439999
0.39138973 0.17687051 -0.78633338
0.33099961 0.12970462 -0.77400005
0.33475724 0.13515782 -0.77700001
0.33970982 0.14011042 -0.77700001
0.34601012 0.1458246 -0.77450007
0.34961289 0.15001348 -0.77700001
0.35590544 0.15442102 -0.77633333
0.3627077 0.15791483 -0.77324998
0.3668355 0.16145748 -0.77550006
0.37283677 0.16576295 -0.77457148
0.38474953 0.16894539 -0.77300006
0.37881333 0.17014745 -0.77850008
0.38898438 0.17273888 -0.77900004
0.39167377 0.17174104 -0.77450001
0.31089145 0.10812784 -0.76100004
0.31532612 0.11282895 -0.76000005
0.32016933 0.11767215 -0.76000005
0.32391894 0.12348576 -0.76600003
0.33590233 0.13681796 -0.76550007
0.34043565 0.13983355 -0.76200002
0.34481707 0.14315595 -0.76420009
0.35312185 0.14832035 -0.76319999
0.35685495 0.15179233 -0.76600003
0.36573759 0.15744467 -0.76500005
0.37524626 0.16303094 -0.76450008
0.38443035 0.1647594 -0.76500005
0.3942773 0.16529979 -0.76558334
0.31283671 0.10953571 -0.75400001
0.31638226 0.11361594 -0.75559998
0.32131752 0.11961969 -0.75700003
0.32443133 0.12545483 -0.75583339
0.3295379 0.13159293 -0.75650001
0.33541366 0.13500266 -0.75400007
0.34166011 0.13836549 -0.75400001
0.34777719 0.14206949 -0.75580007
0.35505682 0.1461245 -0.75375003
0.35943475 0.15077677 -0.75600004
0.36463019 0.15438588 -0.75480002
0.37433878 0.15768984 -0.75450009
0.38553077 0.15629442 -0.75240004
0.39166236 0.15692596 -0.75466675
0.37849984 0.16083656 -0.75800002
0.38453794 0.16083656 -0.75800008
0.29209337 0.089118034 -0.74400002
0.2928822 0.093603782 -0.74200004
0.30654481 0.10421048 -0.7434001
0.31328425 0.10685191 -0.74366671
0.31745371 0.11225568 -0.74471438
0.32083553 0.11750098 -0.74360007
0.32408243 0.12419016 -0.74514294
0.33053839 0.12915763 -0.74250007
0.32985458 0.1302883 -0.74900001
0.33645493 0.13284561 -0.7446
0.34639978 0.13739307 -0.745
0.35535255 0.14429381 -0.74385726
0.36105183 0.14798461 -0.74200004
0.3782748 0.14778517 -0.74100006
0.38368711 0.14805108 -0.74233341
0.36675993 0.15178289 -0.74571431
0.37539274 0.15252127 -0.74600011
0.38388509 0.15171774 -0.74640006
0.29248506 0.088519119 -0.73900002
0.29544523 0.094732337 -0.73572731
0.3053101 0.098627388 -0.73360002
0.31208283 0.099410415 -0.73250002
0.29816908 0.1002247 -0.7385
0.30463588 0.1009428 -0.73800009
0.31643346 0.1052709 -0.73674995
0.32003555 0.1086721 -0.73200005
0.32221919 0.11526972 -0.73540002
0.32696667 0.12297014 -0.73660004
0.33458337 0.12725934 -0.73542869
0.34196019 0.12841037 -0.73150003
0.33817169 0.13081491 -0.7385
0.34541303 0.13316789 -0.73590004
0.35290274 0.13804361 -0.73439997
0.37782824 0.13880317 -0.73100001
0.38067749 0.13899307 -0.73200005
0.35728902 0.14243364 -0.736
0.36464316 0.14505963 -0.73612505
0.3743912 0.14421904 -0.7359091
0.38266721 0.14392386 -0.7373333
0.29231071 0.089029282 -0.72400004
0.29699981 0.09287446 -0.72700006
0.30515486 0.095114574 -0.72514296
0.31307274 0.098256849 -0.72400004
0.31764838 0.1031101 -0.72566676
0.32136947 0.10871131 -0.72450006
0.32531393 0.11533395 -0.72538465
0.33130759 0.11852571 -0.72100002
0.3347066 0.12257204 -0.72590005
0.34456757 0.1264561 -0.7247501
0.34811759 0.13115443 -0.72733337
0.35520455 0.13450892 -0.72540003
0.36554939 0.13653538 -0.72512507
0.37430984 0.13523519 -0.72587508
0.36568132 0.14093931 -0.73000002
0.28673622 0.083890222 -0.713
0.29282486 0.087799594 -0.71399999
0.30036938 0.089948475 -0.71300006
0.2976183 0.090495139 -0.71733332
0.30743724 0.093780577 -0.71625006
0.31352353 0.098106675 -0.71450007
0.31850922 0.10330436 -0.71633339
0.32324946 0.1077237 -0.71640003
0.32799047 0.11281273 -0.71711111
0.33472472 0.11604462 -0.71700001
0.34542015 0.11702294 -0.71563637
0.3526175 0.11948243 -0.71300006
0.34545848 0.12207542 -0.71890002
0.35470504 0.12543808 -0.71547621
0.36512199 0.1269162 -0.71389997
0.37217477 0.12753972 -0.71675003
0.35877511 0.13185093 -0.71850002
0.36441588 0.13182035 -0.71833342
0.28485143 0.079139456 -0.70275009
0.28706047 0.08231613 -0.70600003
0.29356971 0.085845433 -0.70539999
0.30100381 0.089128464 -0.70650005
0.30583462 0.091890194 -0.70466667
0.31182224 0.096870914 -0.70550001
0.31720892 0.10166643 -0.70499998
0.32468557 0.10678155 -0.70416671
0.33280995 0.10838225 -0.70000005
0.33653161 0.11148176 -0.70550007
0.34641042 0.11364911 -0.7050001
0.35483834 0.11720636 -0.70612508
