ply
format ascii 1.0
comment Created by Open3D
element vertex 1653
property float x
property float y
property float z
end_header
0.782157 -0.0503642 -0.522347
0.78329 -0.0502782 -0.522828
0.341261 -0.120991 -0.528767
0.342905 -0.120899 -0.52946
0.344547 -0.120726 -0.530148
0.345481 -0.120855 -0.53164
0.346419 -0.120903 -0.533134
0.348071 -0.120874 -0.533825
0.349018 -0.120943 -0.535323
0.349971 -0.121025 -0.536822
0.350922 -0.12095 -0.538322
0.353286 -0.120825 -0.538214
0.35494 -0.120664 -0.538907
0.3566 -0.120582 -0.539605
0.358958 -0.120419 -0.539503
0.3585 -0.120214 -0.542584
0.362251 -0.120019 -0.54088
0.361829 -0.119867 -0.543977
0.366223 -0.1195 -0.541443
0.367873 -0.119405 -0.542135
0.368852 -0.11947 -0.543648
0.36984 -0.119501 -0.545162
0.370826 -0.11943 -0.54667
0.372489 -0.119359 -0.54737
0.374141 -0.119151 -0.54806
0.376455 -0.118828 -0.547935
0.378759 -0.118453 -0.547802
0.381052 -0.118038 -0.547663
0.383356 -0.117816 -0.547537
0.384998 -0.117639 -0.548224
0.386644 -0.117533 -0.548915
0.387649 -0.117451 -0.55043
0.388666 -0.117425 -0.551955
0.390322 -0.11744 -0.552653
0.391976 -0.11743 -0.553347
0.393005 -0.117407 -0.554878
0.394663 -0.117372 -0.555574
0.395698 -0.117329 -0.557107
0.397359 -0.117249 -0.557804
0.399018 -0.11713 -0.5585
0.400673 -0.116953 -0.559195
0.402327 -0.116771 -0.559889
0.404596 -0.1165 -0.55974
0.406248 -0.116337 -0.560434
0.407902 -0.116179 -0.561128
0.409556 -0.116028 -0.561823
0.411212 -0.115907 -0.562517
0.41287 -0.115805 -0.563211
0.413938 -0.115823 -0.564762
0.415599 -0.115757 -0.565456
0.416679 -0.115819 -0.56701
0.417764 -0.115855 -0.568566
0.419431 -0.115784 -0.569264
0.420524 -0.115815 -0.570823
0.422193 -0.115713 -0.571522
0.423855 -0.115535 -0.572221
0.426088 -0.115224 -0.572057
0.428309 -0.114855 -0.571889
0.430515 -0.114432 -0.571716
0.433296 -0.113985 -0.570686
0.434924 -0.113668 -0.571364
0.437133 -0.113402 -0.571196
0.438776 -0.113211 -0.571883
0.524559 -0.108545 -0.622169
0.525508 -0.108607 -0.624765
0.526822 -0.108875 -0.626416
0.52815 -0.109045 -0.628073
0.529112 -0.10906 -0.630679
0.53082 -0.109011 -0.631392
0.532528 -0.108909 -0.63211
0.534591 -0.108548 -0.631876
0.536297 -0.108431 -0.632594
0.538349 -0.108044 -0.632352
0.540411 -0.107801 -0.632115
0.542093 -0.107537 -0.632823
0.54379 -0.107402 -0.633535
0.545831 -0.107115 -0.63329
0.547181 -0.107085 -0.634959
0.54888 -0.107014 -0.635669
0.549913 -0.107232 -0.638304
0.550959 -0.107503 -0.640943
0.552343 -0.10762 -0.642621
0.553729 -0.107633 -0.644305
0.555444 -0.107498 -0.645023
0.557158 -0.107355 -0.645742
0.559188 -0.10703 -0.645494
0.561211 -0.10668 -0.645243
0.563228 -0.106335 -0.644988
0.564626 -0.10638 -0.646676
0.566335 -0.106243 -0.647393
0.568045 -0.106124 -0.648109
0.569454 -0.106114 -0.649802
0.571168 -0.106035 -0.65052
0.572588 -0.106037 -0.652217
0.574306 -0.106008 -0.652934
0.575735 -0.106012 -0.654635
0.57717 -0.106024 -0.656338
0.578893 -0.10598 -0.657059
0.580337 -0.105991 -0.658765
0.58206 -0.105854 -0.659488
0.583515 -0.105918 -0.661198
0.585507 -0.105565 -0.660934
0.586967 -0.105625 -0.662646
0.588692 -0.105462 -0.66337
0.590677 -0.105129 -0.663103
0.5924 -0.104982 -0.663826
0.594128 -0.104929 -0.664551
0.595596 -0.104868 -0.666267
0.597327 -0.104813 -0.666993
0.598803 -0.104719 -0.66871
0.600533 -0.104605 -0.669437
0.60226 -0.104443 -0.670161
0.604237 -0.104272 -0.669894
0.605957 -0.10405 -0.670614
0.609636 -0.10358 -0.671059
0.611353 -0.103363 -0.671778
0.613074 -0.103177 -0.672499
0.615023 -0.103029 -0.672225
0.616524 -0.10293 -0.673947
0.61825 -0.102847 -0.674673
0.619976 -0.102774 -0.6754
0.621487 -0.102621 -0.677127
0.623216 -0.102543 -0.677854
0.624943 -0.102417 -0.678579
0.62667 -0.102317 -0.679305
0.628398 -0.102233 -0.680032
0.629931 -0.102137 -0.681771
0.631664 -0.102106 -0.682501
0.633397 -0.102075 -0.683235
0.634943 -0.102008 -0.684976
0.636677 -0.101868 -0.685704
0.638411 -0.101733 -0.686432
0.640316 -0.101403 -0.68613
0.64219 -0.100847 -0.685814
0.644456 -0.100544 -0.683463
0.646337 -0.100325 -0.683151
0.647708 -0.100301 -0.685928
0.648954 -0.100648 -0.689753
0.650377 -0.100849 -0.69255
0.651961 -0.100941 -0.694314
0.653549 -0.100918 -0.69608
0.655294 -0.100843 -0.696811
0.657036 -0.100703 -0.697542
0.658775 -0.100535 -0.698272
0.660651 -0.100191 -0.69796
0.66239 -0.100046 -0.698689
0.664257 -0.0997027 -0.698373
0.666257 -0.099227 -0.697011
0.667968 -0.0989774 -0.697732
0.669815 -0.0986091 -0.697407
0.671781 -0.0980882 -0.696033
0.673624 -0.097826 -0.695707
0.675452 -0.0977959 -0.695398
0.67715 -0.09777 -0.696125
0.678561 -0.0977724 -0.699978
0.680168 -0.097906 -0.701765
0.681713 -0.0980164 -0.704592
0.683345 -0.0980827 -0.706379
0.684986 -0.0980458 -0.708159
0.686722 -0.0979108 -0.708888
0.688552 -0.0977525 -0.708575
0.690374 -0.0973841 -0.708235
0.692194 -0.0970798 -0.70791
0.694148 -0.0970865 -0.706611
0.695697 -0.0963618 -0.708242
0.750185 -0.0582001 -0.531306
0.751084 -0.0578727 -0.531257
0.752384 -0.0577006 -0.530901
0.753171 -0.057259 -0.530789
0.754394 -0.0570409 -0.530287
0.755598 -0.0568122 -0.529759
0.756756 -0.0565473 -0.529177
0.758311 -0.0564958 -0.528092
0.759398 -0.0561924 -0.527401
0.760455 -0.0558656 -0.526683
0.761117 -0.055261 -0.526552
0.76257 -0.0552294 -0.525293
0.76364 -0.0549276 -0.524623
0.764737 -0.0546649 -0.523995
0.76585 -0.0544352 -0.5234
0.766988 -0.054269 -0.522861
0.767911 -0.0537889 -0.522963
0.769086 -0.0537041 -0.522494
0.770265 -0.0536708 -0.522068
0.771242 -0.0532305 -0.522226
0.7724 -0.0531911 -0.521785
0.77338 -0.0527127 -0.521917
0.77453 -0.0527013 -0.52149
0.775671 -0.0527123 -0.521086
0.776668 -0.0522373 -0.521217
0.777802 -0.0522706 -0.520823
0.77882 -0.0518361 -0.520996
0.779864 -0.0514254 -0.521211
0.780952 -0.0510829 -0.521497
0.782064 -0.0508289 -0.521841
0.783267 -0.0507565 -0.522356
0.344065 -0.12177 -0.523513
0.345676 -0.121445 -0.524157
0.347283 -0.121111 -0.524798
0.349639 -0.120943 -0.524717
0.351255 -0.120719 -0.525382
0.352873 -0.120528 -0.526054
0.354497 -0.12041 -0.526735
0.355412 -0.120432 -0.528218
0.356341 -0.120562 -0.529708
0.357274 -0.120643 -0.531199
0.358208 -0.120672 -0.532692
0.359847 -0.120623 -0.533378
0.361477 -0.120451 -0.534062
0.363809 -0.120236 -0.533941
0.365426 -0.119944 -0.534617
0.367745 -0.119674 -0.534493
0.370054 -0.119375 -0.534361
0.371679 -0.119253 -0.535042
0.372627 -0.119213 -0.53654
0.373588 -0.119273 -0.538044
0.37523 -0.119357 -0.53873
0.373522 -0.119641 -0.543512
0.377837 -0.119273 -0.540925
0.379462 -0.119032 -0.541608
0.381751 -0.118679 -0.541468
0.383374 -0.118461 -0.542148
0.384993 -0.118171 -0.542825
0.387284 -0.117998 -0.54269
0.388912 -0.117848 -0.543372
0.390542 -0.117755 -0.544058
0.392171 -0.117713 -0.544745
0.393168 -0.117628 -0.546255
0.3948 -0.117668 -0.546948
0.396434 -0.117641 -0.547637
0.397443 -0.117559 -0.549153
0.398452 -0.117474 -0.55067
0.400088 -0.117372 -0.551358
0.402353 -0.117207 -0.551213
0.403977 -0.116958 -0.551893
0.406221 -0.116614 -0.551735
0.40846 -0.116269 -0.551574
0.410076 -0.116024 -0.552254
0.412312 -0.115743 -0.55209
0.413937 -0.115599 -0.552772
0.415561 -0.115447 -0.553454
0.416597 -0.115546 -0.554989
0.417639 -0.115616 -0.556527
0.419272 -0.115508 -0.557211
0.420907 -0.115474 -0.557892
0.421959 -0.115499 -0.559437
0.423018 -0.115548 -0.560983
0.424657 -0.115446 -0.561669
0.425721 -0.115484 -0.563218
0.427363 -0.115368 -0.563906
0.428997 -0.115184 -0.564592
0.431202 -0.114855 -0.564415
0.433405 -0.114565 -0.56424
0.435025 -0.114304 -0.56492
0.437226 -0.114074 -0.564744
0.438852 -0.11389 -0.565426
0.44048 -0.113724 -0.566109
0.44211 -0.113563 -0.566792
0.443741 -0.113425 -0.567476
0.524741 -0.108492 -0.612458
0.526013 -0.108762 -0.614097
0.526927 -0.108835 -0.616673
0.528226 -0.108858 -0.618317
0.529892 -0.108942 -0.61902
0.53157 -0.108947 -0.619723
0.532876 -0.108928 -0.621371
0.533073 -0.10926 -0.625863
0.535133 -0.109094 -0.625621
0.538268 -0.108292 -0.622532
0.540306 -0.108021 -0.622285
0.541969 -0.107803 -0.622984
0.543631 -0.107611 -0.623684
0.544935 -0.107474 -0.625332
0.546617 -0.107405 -0.626036
0.548293 -0.107304 -0.62674
0.549967 -0.107195 -0.627442
0.551642 -0.107096 -0.628145
0.553317 -0.107001 -0.628847
0.554656 -0.106944 -0.63051
0.556335 -0.106886 -0.631213
0.557687 -0.10691 -0.632881
0.559367 -0.106789 -0.633585
0.561045 -0.106648 -0.63429
0.562724 -0.106507 -0.634994
0.564403 -0.106364 -0.635698
0.566081 -0.106214 -0.636403
0.56776 -0.106077 -0.637107
0.56944 -0.105955 -0.637811
0.571121 -0.105843 -0.638515
0.5725 -0.105831 -0.640197
0.574186 -0.105794 -0.640901
0.575576 -0.105799 -0.642586
0.576972 -0.10581 -0.644273
0.578664 -0.105791 -0.644979
0.580068 -0.105777 -0.646671
0.581762 -0.105722 -0.647379
0.583173 -0.105673 -0.649074
0.584869 -0.105589 -0.649784
0.586563 -0.105457 -0.650495
0.588257 -0.105313 -0.651205
0.589688 -0.105382 -0.652905
0.591644 -0.105028 -0.652626
0.593338 -0.104886 -0.653337
0.595031 -0.104744 -0.654048
0.596725 -0.104604 -0.654758
0.598421 -0.104494 -0.655468
0.599867 -0.104528 -0.657176
0.601321 -0.104584 -0.658886
0.603024 -0.104497 -0.659599
0.604481 -0.104452 -0.661313
0.606186 -0.104364 -0.662027
0.60789 -0.10423 -0.662742
0.609592 -0.104088 -0.663456
0.611294 -0.103939 -0.66417
0.612996 -0.103777 -0.664883
0.614699 -0.103655 -0.665599
0.616404 -0.103548 -0.666315
0.618109 -0.103454 -0.667031
0.619592 -0.103305 -0.668747
0.621301 -0.103226 -0.669466
0.623009 -0.103146 -0.670184
0.624714 -0.103011 -0.6709
0.62642 -0.102856 -0.671615
0.628126 -0.102738 -0.672332
0.629833 -0.102682 -0.673053
0.63154 -0.102647 -0.673776
0.633057 -0.102548 -0.675503
0.634577 -0.10244 -0.677232
0.636291 -0.102392 -0.677956
0.638002 -0.102249 -0.678674
0.639695 -0.101972 -0.679382
0.641566 -0.101541 -0.679065
0.643632 -0.101146 -0.677736
0.645711 -0.101023 -0.676424
0.647394 -0.100804 -0.677129
0.648908 -0.100576 -0.678851
0.650295 -0.100512 -0.681625
0.65185 -0.100702 -0.683382
0.653407 -0.100942 -0.685139
0.654968 -0.100943 -0.686898
0.65668 -0.10081 -0.687615
0.658549 -0.100638 -0.687295
0.660391 -0.100208 -0.686969
0.662238 -0.0998913 -0.686643
0.663945 -0.0997631 -0.68736
0.665645 -0.0995719 -0.688074
0.667349 -0.0994097 -0.688788
0.669048 -0.0991912 -0.689497
0.670886 -0.0989902 -0.689175
0.672582 -0.0987524 -0.689881
0.674282 -0.0984741 -0.690581
0.676097 -0.0985195 -0.690287
0.6777 -0.0982764 -0.692018
0.679308 -0.098263 -0.693779
0.680907 -0.0983676 -0.695559
0.682426 -0.0985573 -0.698385
0.684019 -0.0987851 -0.700181
0.685642 -0.098818 -0.701958
0.687362 -0.098736 -0.702688
0.689078 -0.0984781 -0.703393
0.690782 -0.0981709 -0.704085
0.692718 -0.0981993 -0.702774
0.694287 -0.097617 -0.704444
0.696106 -0.0975119 -0.704142
0.697919 -0.0973648 -0.703832
0.699599 -0.0969999 -0.704502
0.714974 -0.096013 -0.71207
0.749014 -0.0595357 -0.530876
0.74995 -0.0592587 -0.530829
0.751293 -0.0590977 -0.530575
0.752141 -0.0587714 -0.530454
0.753402 -0.0585557 -0.530055
0.754641 -0.0583336 -0.5296
0.755822 -0.0580787 -0.529047
0.756962 -0.0577986 -0.528434
0.758063 -0.057494 -0.527773
0.759128 -0.0571659 -0.527071
0.760157 -0.0568076 -0.526339
0.76119 -0.0564465 -0.525617
0.762619 -0.0563228 -0.524327
0.76366 -0.0559994 -0.523624
0.764727 -0.0557036 -0.522957
0.765845 -0.055474 -0.522371
0.766984 -0.0552897 -0.521839
0.768154 -0.0551845 -0.521395
0.769059 -0.0547302 -0.521441
0.770254 -0.0546941 -0.521057
0.771201 -0.0542457 -0.521147
0.772378 -0.0542196 -0.520754
0.773337 -0.0537331 -0.520835
0.77449 -0.0537164 -0.520429
0.775481 -0.0532487 -0.52055
0.776627 -0.0532648 -0.52016
0.777636 -0.0528185 -0.520312
0.778668 -0.0523863 -0.520486
0.779823 -0.0525085 -0.520173
0.780897 -0.0521912 -0.520448
0.782032 -0.0520079 -0.52084
0.783195 -0.0518919 -0.521306
0.345537 -0.122445 -0.521929
0.348676 -0.122534 -0.521203
0.350246 -0.121984 -0.521772
0.35182 -0.121509 -0.522375
0.354896 -0.121232 -0.521517
0.357208 -0.120817 -0.521383
0.359516 -0.120442 -0.521249
0.361113 -0.120285 -0.521919
0.362716 -0.120203 -0.52259
0.363618 -0.120221 -0.524069
0.364531 -0.120332 -0.525552
0.365444 -0.12035 -0.527035
0.367055 -0.12023 -0.527711
0.368664 -0.120072 -0.528385
0.370968 -0.119865 -0.528254
0.372566 -0.119611 -0.528922
0.374863 -0.119387 -0.528789
0.37646 -0.119169 -0.529457
0.378059 -0.118976 -0.530128
0.379662 -0.118822 -0.530801
0.381264 -0.118658 -0.531474
0.383541 -0.118414 -0.531327
0.385146 -0.11832 -0.531998
0.386079 -0.11825 -0.533495
0.387686 -0.118142 -0.534169
0.389293 -0.118024 -0.534842
0.3909 -0.117945 -0.535516
0.392506 -0.117905 -0.536189
0.393471 -0.117908 -0.537694
0.395079 -0.117966 -0.538372
0.39542 -0.117967 -0.540708
0.397034 -0.117974 -0.541389
0.398018 -0.117925 -0.542897
0.399634 -0.117868 -0.543577
0.40125 -0.117754 -0.544256
0.403496 -0.117513 -0.544101
0.405729 -0.117154 -0.543938
0.407949 -0.116743 -0.543769
0.410156 -0.116305 -0.543595
0.41237 -0.115942 -0.543424
0.41458 -0.115609 -0.543252
0.416168 -0.115384 -0.543918
0.418382 -0.115227 -0.543753
0.419365 -0.115081 -0.545258
0.420967 -0.114978 -0.545931
0.422568 -0.11489 -0.546603
0.424168 -0.114849 -0.547277
0.425183 -0.114822 -0.548799
0.426786 -0.114807 -0.549475
0.427811 -0.114842 -0.551003
0.428838 -0.11485 -0.552535
0.430449 -0.114796 -0.553209
0.432058 -0.114687 -0.553885
0.433666 -0.114556 -0.554559
0.435273 -0.114405 -0.555233
0.436881 -0.114272 -0.555908
0.43849 -0.114151 -0.556583
0.440099 -0.114027 -0.557258
0.441707 -0.113902 -0.557933
0.442752 -0.11378 -0.55947
0.444924 -0.113652 -0.559283
0.44653 -0.113493 -0.559957
0.448132 -0.113284 -0.560628
0.525402 -0.108484 -0.601863
0.526649 -0.108679 -0.603493
0.527516 -0.108671 -0.606025
0.528395 -0.109002 -0.608601
0.529662 -0.109157 -0.610234
0.530936 -0.109178 -0.611867
0.532587 -0.109116 -0.612562
0.534241 -0.109039 -0.613256
0.535895 -0.108921 -0.613951
0.537547 -0.108749 -0.614644
0.539197 -0.108577 -0.615335
0.540845 -0.108395 -0.616025
0.542489 -0.108173 -0.616714
0.544506 -0.107952 -0.616462
0.546148 -0.107735 -0.617152
0.548156 -0.107527 -0.616892
0.549799 -0.107357 -0.617582
0.551446 -0.107228 -0.618273
0.552749 -0.107229 -0.619921
0.554398 -0.10708 -0.620613
0.556048 -0.106955 -0.621305
0.557698 -0.106827 -0.621997
0.559346 -0.106673 -0.622689
0.560992 -0.106496 -0.623381
0.562968 -0.106249 -0.623107
0.564294 -0.10626 -0.624765
0.565944 -0.106141 -0.625457
0.567595 -0.106034 -0.62615
0.568931 -0.105999 -0.627812
0.570586 -0.105901 -0.628505
0.572239 -0.105779 -0.629199
0.573892 -0.105656 -0.629892
0.575545 -0.105544 -0.630585
0.577198 -0.105468 -0.63128
0.578559 -0.105415 -0.63295
0.580215 -0.105418 -0.633645
0.581586 -0.105432 -0.63532
0.582964 -0.105461 -0.636998
0.584346 -0.105502 -0.638678
0.586014 -0.105485 -0.639377
0.587402 -0.105453 -0.64106
0.589072 -0.10536 -0.64176
0.590739 -0.105229 -0.64246
0.592404 -0.105055 -0.643159
0.594066 -0.104868 -0.643857
0.596 -0.104625 -0.643567
0.597662 -0.104464 -0.644264
0.599324 -0.104298 -0.644962
0.600989 -0.104177 -0.64566
0.602655 -0.104078 -0.646358
0.604074 -0.104086 -0.648055
0.605498 -0.104067 -0.649754
0.607172 -0.104028 -0.650454
0.608845 -0.103946 -0.651155
0.610278 -0.103896 -0.652859
0.611954 -0.1038 -0.653561
0.613627 -0.10367 -0.654263
0.615301 -0.103544 -0.654965
0.616974 -0.103417 -0.655667
0.618649 -0.103305 -0.656369
0.620104 -0.103273 -0.658082
0.621784 -0.103218 -0.658784
0.62325 -0.1032 -0.660501
0.624933 -0.103162 -0.661205
0.626408 -0.103141 -0.662925
0.628092 -0.103089 -0.663631
0.629578 -0.103081 -0.665354
0.631265 -0.10308 -0.666066
0.632759 -0.103029 -0.667789
0.634256 -0.102922 -0.669511
0.635948 -0.102869 -0.670225
0.637638 -0.102755 -0.670935
0.639521 -0.102578 -0.670629
0.641191 -0.102266 -0.671326
0.643046 -0.101895 -0.671004
0.644912 -0.101658 -0.67069
0.646776 -0.101529 -0.670385
0.648261 -0.10118 -0.672086
0.649948 -0.101097 -0.672795
0.651633 -0.101013 -0.673506
0.65332 -0.10095 -0.674217
0.655001 -0.100803 -0.674923
0.656675 -0.100573 -0.675622
0.658512 -0.100341 -0.675296
0.660183 -0.100128 -0.675996
0.662011 -0.0998815 -0.675662
0.663683 -0.0997014 -0.676364
0.665358 -0.0995665 -0.677066
0.666899 -0.099539 -0.678815
0.668584 -0.0995234 -0.67952
0.670136 -0.0995192 -0.681272
0.671694 -0.0994849 -0.683024
0.673381 -0.0993627 -0.68373
0.675067 -0.0992699 -0.68444
0.67675 -0.0991943 -0.68515
0.678334 -0.0990991 -0.686897
0.680003 -0.0991952 -0.68763
0.681588 -0.0992327 -0.689393
0.683174 -0.0993187 -0.691163
0.68477 -0.0993947 -0.692934
0.686378 -0.0994601 -0.694707
0.687999 -0.099379 -0.696468
0.689704 -0.0993101 -0.697191
0.691412 -0.099194 -0.697911
0.693109 -0.0989595 -0.698613
0.694798 -0.098684 -0.699307
0.696594 -0.0984918 -0.698976
0.698263 -0.0981396 -0.699658
0.700051 -0.0979328 -0.699321
0.701918 -0.0976011 -0.697911
0.708905 -0.0965943 -0.695387
0.710455 -0.0967972 -0.697211
0.712044 -0.0964982 -0.702143
0.713638 -0.0966859 -0.705008
0.715239 -0.0969669 -0.707889
0.716899 -0.0969898 -0.709683
0.718607 -0.0969724 -0.710407
0.720306 -0.0966664 -0.711112
0.722052 -0.0965572 -0.710756
0.723786 -0.0962782 -0.710387
0.725509 -0.0958637 -0.710005
0.750252 -0.0605137 -0.530359
0.75113 -0.0602399 -0.530251
0.75244 -0.060042 -0.529929
0.753704 -0.0598201 -0.529502
0.754931 -0.0595874 -0.529006
0.756135 -0.0593401 -0.528477
0.757263 -0.0590578 -0.527827
0.758331 -0.058734 -0.527094
0.759359 -0.0583931 -0.52633
0.760359 -0.0580347 -0.525556
0.761332 -0.0576561 -0.524762
0.762738 -0.0574584 -0.523451
0.763749 -0.0571275 -0.522719
0.764806 -0.0568356 -0.522052
0.765915 -0.0565989 -0.521465
0.76706 -0.0564262 -0.52096
0.768226 -0.0563023 -0.520516
0.769099 -0.0558543 -0.520513
0.770299 -0.0558062 -0.520147
0.771207 -0.0553446 -0.520167
0.772377 -0.0552935 -0.519774
0.773317 -0.0548104 -0.519806
0.774481 -0.0547955 -0.519439
0.775456 -0.054337 -0.519524
0.776604 -0.0543354 -0.519152
0.777603 -0.0538979 -0.519282
0.778749 -0.0539522 -0.518944
0.779782 -0.0535878 -0.519149
0.780856 -0.05328 -0.519424
0.781985 -0.0530625 -0.519787
0.783136 -0.0529858 -0.520283
0.347812 -0.123642 -0.519733
0.350121 -0.123108 -0.519567
0.353175 -0.12258 -0.518682
0.356939 -0.121809 -0.516974
0.360658 -0.12091 -0.515234
0.362937 -0.120446 -0.515089
0.365231 -0.120211 -0.514951
0.366807 -0.120124 -0.515611
0.367683 -0.120113 -0.51708
0.368566 -0.120133 -0.518551
0.369457 -0.120209 -0.520026
0.371048 -0.120196 -0.520692
0.371943 -0.120183 -0.522168
0.373531 -0.120043 -0.522834
0.375812 -0.119811 -0.522692
0.377389 -0.11957 -0.523352
0.37966 -0.119283 -0.523206
0.381926 -0.118988 -0.523059
0.383495 -0.118749 -0.523715
0.38506 -0.118478 -0.52437
0.387318 -0.118222 -0.524219
0.389567 -0.117968 -0.524062
0.391135 -0.117765 -0.52472
0.392711 -0.117667 -0.52538
0.393628 -0.11763 -0.526867
0.39456 -0.117676 -0.52836
0.39614 -0.117744 -0.529019
0.39708 -0.117852 -0.530514
0.398026 -0.117916 -0.532012
0.398979 -0.11797 -0.533511
0.399935 -0.118022 -0.535012
0.40153 -0.118068 -0.535683
0.403129 -0.117996 -0.536355
0.40408 -0.117837 -0.537847
0.406311 -0.11763 -0.537689
0.407884 -0.117346 -0.538344
0.410745 -0.116983 -0.537354
0.412298 -0.11662 -0.537996
0.415135 -0.116218 -0.536996
0.416692 -0.115913 -0.537642
0.418265 -0.115684 -0.538298
0.420466 -0.11554 -0.538131
0.422043 -0.115411 -0.538793
0.423016 -0.115281 -0.54029
0.4246 -0.115192 -0.540957
0.426183 -0.115121 -0.541624
0.427764 -0.115107 -0.542293
0.429345 -0.115079 -0.542962
0.430347 -0.114998 -0.544472
0.431354 -0.114953 -0.545988
0.432941 -0.114927 -0.546659
0.434529 -0.114858 -0.547328
0.436118 -0.114755 -0.547996
0.437705 -0.114614 -0.548661
0.439292 -0.114476 -0.549327
0.440878 -0.114322 -0.549991
0.442463 -0.114164 -0.550656
0.444049 -0.114016 -0.551321
0.445638 -0.113908 -0.551988
0.447224 -0.113764 -0.552653
0.44881 -0.113614 -0.553318
0.450394 -0.113442 -0.553982
0.452528 -0.113174 -0.55378
0.454641 -0.11274 -0.553565
0.525031 -0.109831 -0.598561
0.526672 -0.109833 -0.599242
0.527894 -0.109476 -0.600793
0.529522 -0.109413 -0.601484
0.530753 -0.109291 -0.603091
0.532776 -0.109182 -0.602851
0.534401 -0.109042 -0.603532
0.536023 -0.108858 -0.604212
0.538042 -0.108736 -0.603959
0.539654 -0.10851 -0.604635
0.541269 -0.108303 -0.605313
0.542889 -0.108135 -0.605994
0.544518 -0.108066 -0.606678
0.546143 -0.107941 -0.607357
0.547762 -0.107757 -0.608036
0.549377 -0.107552 -0.608715
0.551358 -0.107319 -0.608444
0.552968 -0.107096 -0.609121
0.554582 -0.1069 -0.609799
0.5562 -0.106745 -0.610478
0.557821 -0.106626 -0.611158
0.559443 -0.106514 -0.611838
0.561063 -0.106384 -0.612518
0.562684 -0.106266 -0.613197
0.564306 -0.106179 -0.613876
0.5656 -0.10614 -0.615523
0.567226 -0.106079 -0.616203
0.568532 -0.106048 -0.617853
0.57016 -0.10599 -0.618535
0.571787 -0.105946 -0.619217
0.573106 -0.10587 -0.62087
0.574736 -0.105836 -0.621555
0.576365 -0.105812 -0.622242
0.577698 -0.105739 -0.623897
0.579329 -0.105739 -0.624587
0.580672 -0.105679 -0.626244
0.582305 -0.105707 -0.626937
0.583658 -0.105647 -0.628598
0.585015 -0.105644 -0.630265
0.586655 -0.105652 -0.630958
0.58802 -0.105641 -0.632628
0.589667 -0.105603 -0.63332
0.591029 -0.105482 -0.634993
0.592954 -0.105303 -0.634698
0.594588 -0.105081 -0.635386
0.596495 -0.104758 -0.635085
0.598396 -0.104438 -0.634782
0.600288 -0.104096 -0.634475
0.601917 -0.10391 -0.63516
0.60381 -0.103673 -0.63485
0.605185 -0.103603 -0.636532
0.606824 -0.103553 -0.637217
0.608221 -0.103678 -0.638901
0.609381 -0.103814 -0.641594
0.61079 -0.103854 -0.643287
0.612439 -0.1038 -0.643976
0.614088 -0.103711 -0.644666
0.615737 -0.103623 -0.645356
0.617384 -0.103494 -0.646047
0.618803 -0.103406 -0.647746
0.620455 -0.103317 -0.648438
0.622107 -0.103233 -0.64913
0.623759 -0.103161 -0.649823
0.625196 -0.103088 -0.651528
0.62685 -0.103009 -0.652221
0.628505 -0.102927 -0.652914
0.629955 -0.102882 -0.654625
0.631613 -0.102834 -0.655319
0.633271 -0.102791 -0.656011
0.634546 -0.102957 -0.65875
0.636021 -0.10302 -0.66047
0.637502 -0.103075 -0.662191
0.638977 -0.102991 -0.663913
0.640837 -0.102825 -0.66359
0.642685 -0.102568 -0.663267
0.644342 -0.102337 -0.663961
0.645999 -0.102097 -0.664652
0.647843 -0.101977 -0.664335
0.649504 -0.101847 -0.665035
0.650991 -0.101648 -0.666742
0.652833 -0.101646 -0.666437
0.654316 -0.101365 -0.668137
0.655974 -0.101181 -0.668832
0.657798 -0.100981 -0.668505
0.659615 -0.100731 -0.668171
0.661428 -0.100475 -0.667833
0.663055 -0.100132 -0.668511
0.664861 -0.0999025 -0.66817
0.666497 -0.0996387 -0.668856
0.668146 -0.0994445 -0.669547
0.669942 -0.0993201 -0.669201
0.671458 -0.0992348 -0.670937
0.673113 -0.0991796 -0.671631
0.674646 -0.0991626 -0.673375
0.676187 -0.0991973 -0.675122
0.677843 -0.0992443 -0.675815
0.679288 -0.099353 -0.678622
0.680844 -0.0994812 -0.680376
0.682309 -0.0997091 -0.683189
0.683794 -0.0998625 -0.686002
0.685366 -0.100023 -0.687769
0.686881 -0.0999681 -0.69057
0.688549 -0.100028 -0.691293
0.690231 -0.100018 -0.692013
0.691913 -0.0998042 -0.692714
0.693694 -0.0996096 -0.69237
0.695468 -0.0993228 -0.692015
0.697232 -0.0990054 -0.691654
0.698855 -0.0985615 -0.692333
0.700714 -0.0982175 -0.690912
0.702559 -0.0979548 -0.689486
0.707697 -0.0975873 -0.688412
0.709174 -0.0972134 -0.692278
0.710779 -0.0973253 -0.694062
0.712384 -0.0972267 -0.697919
0.713993 -0.0976123 -0.698697
0.715633 -0.0975671 -0.700475
0.717317 -0.0974933 -0.701185
0.718999 -0.0973646 -0.701892
0.720728 -0.0972127 -0.701527
0.722409 -0.0970385 -0.702227
0.723999 -0.0967463 -0.705069
0.725691 -0.0967239 -0.705786
0.74921 -0.0619317 -0.530199
0.75016 -0.0617105 -0.530144
0.751511 -0.0615118 -0.529913
0.752322 -0.0612322 -0.529712
0.753591 -0.0609991 -0.529314
0.754811 -0.0607467 -0.528824
0.755972 -0.0604699 -0.528237
0.757096 -0.0601759 -0.527597
0.75816 -0.0598522 -0.526884
0.759162 -0.0594988 -0.526111
0.760597 -0.0592286 -0.524804
0.761521 -0.0588409 -0.523958
0.762475 -0.0584564 -0.523143
0.763906 -0.0582812 -0.521906
0.76496 -0.0579996 -0.521255
0.766068 -0.0577802 -0.520698
0.767203 -0.0576036 -0.520205
0.768017 -0.0571558 -0.520118
0.769211 -0.0570498 -0.519724
0.770074 -0.0565873 -0.519678
0.771266 -0.0565121 -0.519299
0.772169 -0.0560268 -0.519282
0.773346 -0.0559727 -0.518905
0.7745 -0.0559213 -0.518516
0.775446 -0.0554444 -0.518551
0.776592 -0.0554226 -0.518172
0.777731 -0.0554207 -0.517798
0.778715 -0.0550016 -0.517922
0.77986 -0.0550688 -0.517604
0.780897 -0.0547789 -0.51787
0.781973 -0.054568 -0.518219
0.78309 -0.054488 -0.5187
0.367969 -0.120374 -0.509603
0.369526 -0.120156 -0.510257
0.371088 -0.120057 -0.510912
0.372651 -0.120015 -0.511567
0.374215 -0.119973 -0.512222
0.375078 -0.119962 -0.513686
0.376645 -0.119896 -0.514343
0.377513 -0.119868 -0.515809
0.379079 -0.11974 -0.516466
0.380642 -0.119583 -0.517121
0.382905 -0.119406 -0.516971
0.384461 -0.119195 -0.517623
0.386012 -0.118961 -0.518272
0.388257 -0.118685 -0.518116
0.389798 -0.118392 -0.51876
0.392031 -0.11809 -0.518598
0.394257 -0.117807 -0.518432
0.395809 -0.117653 -0.519083
0.397364 -0.117565 -0.519736
0.398265 -0.117577 -0.521214
0.399823 -0.117612 -0.521865
0.400736 -0.117676 -0.523349
0.401015 -0.117818 -0.525674
0.40258 -0.117918 -0.526323
0.403511 -0.118032 -0.527814
0.403813 -0.118196 -0.530146
0.40539 -0.118189 -0.530806
0.406967 -0.118103 -0.531467
0.408539 -0.117927 -0.532127
0.4101 -0.117679 -0.532782
0.41293 -0.117203 -0.531768
0.415114 -0.11682 -0.531584
0.417295 -0.116463 -0.531399
0.418836 -0.116153 -0.532045
0.421024 -0.115931 -0.531864
0.423204 -0.115759 -0.531679
0.424141 -0.115633 -0.533171
0.425705 -0.115545 -0.533827
0.426663 -0.11549 -0.53533
0.428232 -0.115491 -0.535988
0.429798 -0.115456 -0.536644
0.430772 -0.115407 -0.538154
0.432341 -0.11537 -0.538812
0.433324 -0.115343 -0.540323
0.434896 -0.115314 -0.540984
0.436468 -0.11526 -0.541645
0.43804 -0.115162 -0.542304
0.439027 -0.115014 -0.543814
0.441176 -0.114841 -0.54362
0.442742 -0.114665 -0.544276
0.444306 -0.114471 -0.544932
0.446444 -0.114264 -0.54473
0.448009 -0.114109 -0.545387
0.449576 -0.113996 -0.546045
0.451143 -0.113864 -0.546702
0.452149 -0.113761 -0.548221
0.453717 -0.113608 -0.548877
0.455836 -0.113393 -0.54867
0.45794 -0.113043 -0.548453
0.525538 -0.110333 -0.597579
0.527517 -0.110487 -0.597422
0.529127 -0.110319 -0.598097
0.53114 -0.110199 -0.597865
0.533146 -0.109978 -0.597617
0.535523 -0.109451 -0.596408
0.537504 -0.109077 -0.596136
0.539095 -0.108858 -0.596805
0.541461 -0.108513 -0.595584
0.54118 -0.109052 -0.600981
0.54279 -0.108897 -0.601657
0.545885 -0.108373 -0.598544
0.547484 -0.108209 -0.599217
0.54799 -0.108447 -0.602739
0.549595 -0.108291 -0.603413
0.552619 -0.107471 -0.600276
0.554205 -0.107242 -0.600944
0.555792 -0.10702 -0.601611
0.557382 -0.106824 -0.602279
0.558979 -0.106695 -0.602948
0.560577 -0.106588 -0.603619
0.562168 -0.106397 -0.604287
0.563761 -0.106213 -0.604955
0.565695 -0.106033 -0.604666
0.567287 -0.105897 -0.605334
0.568881 -0.105793 -0.606002
0.57015 -0.105714 -0.607637
0.571749 -0.105661 -0.608306
0.573034 -0.105684 -0.609947
0.574634 -0.105729 -0.610614
0.575625 -0.1059 -0.613234
0.576929 -0.105993 -0.614881
0.578239 -0.106093 -0.616531
0.579555 -0.106156 -0.618183
0.580877 -0.106157 -0.619836
0.582493 -0.10617 -0.620517
0.583823 -0.106094 -0.622172
0.585443 -0.106055 -0.622854
0.587063 -0.105961 -0.623534
0.588684 -0.105853 -0.624214
0.590304 -0.105719 -0.624894
0.591921 -0.105535 -0.625572
0.593535 -0.105344 -0.62625
0.595434 -0.105128 -0.625945
0.59704 -0.104899 -0.62662
0.59893 -0.104658 -0.626312
0.600531 -0.104415 -0.626984
0.602134 -0.104181 -0.627657
0.604016 -0.103996 -0.627346
0.605621 -0.103802 -0.62802
0.607232 -0.103671 -0.628695
0.608844 -0.103561 -0.629372
0.610458 -0.103486 -0.630048
0.611828 -0.103461 -0.631724
0.613206 -0.103449 -0.633405
0.614826 -0.103414 -0.634082
0.616446 -0.103369 -0.634759
0.617833 -0.103326 -0.636446
0.619455 -0.103236 -0.637125
0.621078 -0.103166 -0.637803
0.622478 -0.103144 -0.639495
0.624105 -0.103112 -0.640174
0.625514 -0.103078 -0.641869
0.627143 -0.103032 -0.64255
0.628561 -0.103007 -0.644248
0.630193 -0.102944 -0.64493
0.631825 -0.102881 -0.645613
0.633253 -0.102833 -0.647315
0.634886 -0.10273 -0.648
0.636518 -0.102608 -0.648685
0.638151 -0.102499 -0.649369
0.639785 -0.102404 -0.650053
0.641229 -0.102303 -0.651765
0.642868 -0.102278 -0.652449
0.644503 -0.102174 -0.653134
0.645968 -0.102313 -0.654849
0.647264 -0.102394 -0.657596
0.648912 -0.10238 -0.658286
0.650388 -0.102322 -0.660005
0.652034 -0.102215 -0.660695
0.653682 -0.102112 -0.661387
0.655328 -0.101982 -0.662077
0.656967 -0.101784 -0.662763
0.658775 -0.101571 -0.662425
0.660573 -0.101288 -0.662078
0.662178 -0.100915 -0.662753
0.663966 -0.100628 -0.662402
0.665746 -0.100328 -0.662048
0.667517 -0.100017 -0.661691
0.669287 -0.0997602 -0.661332
0.670907 -0.0995488 -0.662013
0.672534 -0.0994018 -0.662696
0.674164 -0.0993022 -0.66338
0.67567 -0.0992134 -0.665112
0.677305 -0.0992132 -0.665798
0.678824 -0.0992614 -0.667536
0.680351 -0.0993012 -0.669277
0.681883 -0.0993871 -0.671019
0.683418 -0.0995109 -0.672764
0.684868 -0.0996847 -0.675573
0.686415 -0.0998707 -0.677321
0.687882 -0.100129 -0.680137
0.68936 -0.100329 -0.682959
0.690932 -0.100347 -0.68472
0.692597 -0.100219 -0.685417
0.694368 -0.100061 -0.685057
0.696013 -0.0997886 -0.685751
0.697753 -0.0994447 -0.68538
0.699461 -0.0989739 -0.685
0.701168 -0.0984222 -0.684619
0.703076 -0.0980561 -0.682113
0.70486 -0.0980644 -0.680697
0.706495 -0.0979996 -0.681388
0.707954 -0.0979476 -0.685265
0.709459 -0.0978754 -0.689155
0.711084 -0.0979963 -0.690927
0.71265 -0.0984545 -0.692738
0.714252 -0.0983055 -0.695566
0.715907 -0.0982281 -0.696266
0.717607 -0.098212 -0.695912
0.719272 -0.0978745 -0.696599
0.721101 -0.0975346 -0.692979
0.722716 -0.097381 -0.694761
0.724328 -0.0971449 -0.696526
0.725964 -0.0972053 -0.698315
0.727611 -0.0974578 -0.700112
0.747782 -0.0633432 -0.530113
0.749621 -0.0631746 -0.53002
0.750564 -0.0629614 -0.529909
0.751438 -0.062723 -0.529746
0.752747 -0.0624971 -0.529397
0.754004 -0.0622481 -0.528932
0.754696 -0.0619365 -0.528643
0.755857 -0.0616514 -0.528072
0.756958 -0.0613427 -0.527416
0.758007 -0.0610116 -0.526699
0.758982 -0.0606462 -0.525915
0.760407 -0.060339 -0.524611
0.761316 -0.0599398 -0.523747
0.762697 -0.0596487 -0.522389
0.763689 -0.0593037 -0.52163
0.764752 -0.0590018 -0.52096
0.765864 -0.0587462 -0.52037
0.76702 -0.0585477 -0.51987
0.768189 -0.0583905 -0.519418
0.769007 -0.0579397 -0.519321
0.770209 -0.0578311 -0.518943
0.771066 -0.0573534 -0.518864
0.772247 -0.0572525 -0.518473
0.773403 -0.0571509 -0.518055
0.774542 -0.0570585 -0.517623
0.775452 -0.0565683 -0.517615
0.776584 -0.0565007 -0.517193
0.777702 -0.0564409 -0.516756
0.778822 -0.0564224 -0.516348
0.779806 -0.0560393 -0.51651
0.780823 -0.0557137 -0.516739
0.781891 -0.0554872 -0.517072
0.783001 -0.055363 -0.51751
0.374809 -0.118298 -0.494964
0.374899 -0.11867 -0.497205
0.375002 -0.119045 -0.499451
0.375113 -0.119467 -0.501697
0.375238 -0.119743 -0.503958
0.376072 -0.119829 -0.50541
0.377615 -0.119822 -0.50605
0.378454 -0.119798 -0.507508
0.3807 -0.119729 -0.50734
0.382244 -0.119616 -0.507988
0.383085 -0.119536 -0.509447
0.384627 -0.119399 -0.510093
0.386167 -0.119251 -0.51074
0.387704 -0.119084 -0.511386
0.389933 -0.118805 -0.511219
0.392151 -0.118478 -0.511048
0.393673 -0.118224 -0.511688
0.395885 -0.117934 -0.511514
0.397414 -0.117751 -0.512156
0.398949 -0.117645 -0.5128
0.400485 -0.117588 -0.513444
0.401362 -0.117599 -0.514914
0.402901 -0.1176 -0.515558
0.403788 -0.117576 -0.517033
0.404681 -0.117595 -0.518511
0.406226 -0.11759 -0.519156
0.407772 -0.117547 -0.519802
0.409318 -0.117471 -0.520448
0.41022 -0.117456 -0.521933
0.411767 -0.117346 -0.522581
0.413313 -0.117219 -0.523229
0.414857 -0.117084 -0.523878
0.4164 -0.116932 -0.524525
0.418578 -0.116672 -0.524335
0.42011 -0.116453 -0.52498
0.42164 -0.116225 -0.525625
0.423805 -0.115952 -0.52543
0.425334 -0.11572 -0.526074
0.427493 -0.115521 -0.525876
0.429027 -0.115356 -0.52652
0.430563 -0.115226 -0.527164
0.432102 -0.115145 -0.527809
0.433039 -0.115101 -0.529306
0.434582 -0.115045 -0.529952
0.436126 -0.114997 -0.530598
0.437076 -0.114968 -0.532101
0.438622 -0.11491 -0.532748
0.440168 -0.114828 -0.533394
0.441713 -0.114737 -0.534042
0.442676 -0.114717 -0.535551
0.444224 -0.114619 -0.536199
0.445769 -0.114486 -0.536847
0.447314 -0.114345 -0.537496
0.448857 -0.114176 -0.538144
0.450971 -0.113982 -0.537927
0.452515 -0.113879 -0.538575
0.453496 -0.113822 -0.540089
0.455047 -0.113769 -0.540739
0.4566 -0.11372 -0.54139
0.457584 -0.113594 -0.542905
0.459128 -0.113416 -0.543553
0.461212 -0.113099 -0.543327
0.463836 -0.112592 -0.542226
0.466421 -0.111898 -0.54111
0.469575 -0.111275 -0.539144
0.529174 -0.110941 -0.589445
0.531171 -0.110629 -0.58918
0.532697 -0.110196 -0.589828
0.535092 -0.109775 -0.588626
0.537041 -0.109336 -0.588346
0.538978 -0.108861 -0.588062
0.540932 -0.108494 -0.587781
0.542901 -0.108269 -0.587502
0.544467 -0.108099 -0.58816
0.546039 -0.10797 -0.588819
0.547234 -0.107915 -0.590427
0.548815 -0.10785 -0.591088
0.550393 -0.107756 -0.591749
0.551969 -0.107623 -0.592409
0.553545 -0.107507 -0.593071
0.555121 -0.107386 -0.593732
0.556695 -0.107249 -0.594393
0.558273 -0.107154 -0.595056
0.559847 -0.107003 -0.595716
0.561423 -0.106866 -0.596377
0.562993 -0.106681 -0.597035
0.564563 -0.106487 -0.597693
0.56648 -0.106296 -0.597399
0.568049 -0.106131 -0.598057
0.569622 -0.106017 -0.598717
0.570865 -0.1059 -0.600336
0.572444 -0.105823 -0.600999
0.574022 -0.105777 -0.601662
0.575597 -0.105709 -0.602325
0.577173 -0.105679 -0.602987
0.578444 -0.105646 -0.604618
0.579721 -0.105679 -0.606255
0.581004 -0.105745 -0.607894
0.582293 -0.105813 -0.609537
0.583882 -0.105824 -0.610199
0.585178 -0.10582 -0.611847
0.586771 -0.105768 -0.612511
0.588075 -0.105777 -0.614163
0.58967 -0.105691 -0.61483
0.591268 -0.105633 -0.615497
0.592578 -0.105584 -0.617153
0.594175 -0.105477 -0.617822
0.59577 -0.105336 -0.618491
0.597362 -0.105156 -0.619159
0.599236 -0.10497 -0.618844
0.60082 -0.104745 -0.619509
0.602405 -0.104533 -0.620174
0.604269 -0.104348 -0.619856
0.605853 -0.104155 -0.62052
0.607439 -0.103984 -0.621186
0.609027 -0.103825 -0.621852
0.610617 -0.103686 -0.622519
0.612208 -0.103569 -0.623186
0.613798 -0.103434 -0.623854
0.61539 -0.103323 -0.624521
0.616981 -0.103218 -0.625189
0.618573 -0.10312 -0.625856
0.619932 -0.103056 -0.62753
0.621528 -0.102986 -0.628198
0.623124 -0.102933 -0.628865
0.624498 -0.102928 -0.630545
0.626098 -0.102882 -0.631214
0.62748 -0.102848 -0.632897
0.629083 -0.102801 -0.633567
0.630472 -0.10275 -0.635255
0.632287 -0.102646 -0.634909
0.633679 -0.102566 -0.636598
0.635282 -0.102446 -0.63727
0.636884 -0.102319 -0.637942
0.638485 -0.102171 -0.638614
0.640088 -0.102052 -0.639286
0.641691 -0.101934 -0.639958
0.643295 -0.101851 -0.640628
0.644718 -0.101872 -0.642329
0.646149 -0.101947 -0.64403
0.647587 -0.102034 -0.645734
0.64903 -0.102108 -0.64744
0.650477 -0.102128 -0.64915
0.652098 -0.102125 -0.649825
0.653552 -0.102105 -0.65154
0.655174 -0.102005 -0.652218
0.656794 -0.101871 -0.652898
0.658407 -0.101688 -0.653578
0.660189 -0.101452 -0.653218
0.661786 -0.101181 -0.653896
0.663548 -0.100865 -0.653533
0.665303 -0.100535 -0.653167
0.66705 -0.100199 -0.6528
0.668801 -0.0999403 -0.65243
0.670397 -0.0997434 -0.653103
0.672003 -0.0996224 -0.653776
0.673609 -0.0995149 -0.65445
0.675083 -0.0994079 -0.65617
0.676695 -0.0993422 -0.656846
0.678305 -0.0992531 -0.657522
0.679914 -0.0991931 -0.658196
0.681412 -0.0991565 -0.659926
0.683022 -0.0991777 -0.660601
0.68443 -0.099296 -0.663393
0.685946 -0.099435 -0.665129
0.687468 -0.0995739 -0.666867
0.688906 -0.0997375 -0.669673
0.690443 -0.0998443 -0.671419
0.691986 -0.0998786 -0.673168
0.693622 -0.099794 -0.673852
0.695257 -0.0996591 -0.674538
0.696887 -0.0994671 -0.675218
0.698598 -0.0991399 -0.674838
0.700223 -0.0989216 -0.675518
0.701854 -0.0987585 -0.676201
0.703563 -0.0985841 -0.675824
0.705191 -0.0985287 -0.676514
0.706757 -0.0983012 -0.678254
0.708334 -0.0983629 -0.680008
0.709862 -0.0983349 -0.682829
0.711451 -0.0985565 -0.684609
0.713088 -0.0987101 -0.685318
0.714828 -0.0983283 -0.683853
0.716511 -0.0979765 -0.683456
0.718186 -0.0976277 -0.683056
0.719811 -0.0974319 -0.68374
0.721442 -0.0973903 -0.684428
0.72304 -0.0973582 -0.686198
0.724623 -0.0973371 -0.689054
0.726251 -0.0975866 -0.689751
0.727839 -0.0978008 -0.691542
0.749602 -0.0644037 -0.529957
0.75053 -0.0641952 -0.52981
0.751388 -0.0639516 -0.529632
0.752682 -0.063714 -0.529277
0.753932 -0.0634577 -0.528819
0.755115 -0.0631773 -0.528247
0.755751 -0.0628617 -0.527924
0.756856 -0.0625559 -0.527284
0.757885 -0.0622145 -0.526564
0.759326 -0.0618746 -0.525308
0.760227 -0.0614871 -0.524439
0.761592 -0.0611368 -0.523039
0.762506 -0.060747 -0.522183
0.763976 -0.060516 -0.520982
0.765019 -0.0602259 -0.520319
0.765671 -0.0597746 -0.520084
0.766836 -0.0595475 -0.519562
0.768014 -0.0593558 -0.519095
0.769201 -0.0592008 -0.518678
0.770019 -0.0587566 -0.518556
0.7712 -0.0586153 -0.51815
0.772355 -0.058469 -0.517709
0.773205 -0.0579789 -0.517613
0.774335 -0.057817 -0.517143
0.775462 -0.05768 -0.516678
0.776571 -0.0575455 -0.516189
0.77767 -0.0574279 -0.515699
0.778771 -0.057345 -0.515241
0.779731 -0.0569575 -0.515376
0.780737 -0.0566226 -0.515587
0.781883 -0.0567796 -0.515352
0.782951 -0.0566322 -0.51575
0.377775 -0.118579 -0.491911
0.379254 -0.118708 -0.492531
0.380044 -0.118876 -0.493963
0.380837 -0.119118 -0.495394
0.380947 -0.119347 -0.497645
0.38176 -0.11947 -0.499088
0.38258 -0.119503 -0.500536
0.384097 -0.11951 -0.501167
0.385618 -0.119454 -0.501804
0.387141 -0.119357 -0.502444
0.388657 -0.119174 -0.50308
0.390168 -0.118967 -0.503715
0.392383 -0.118715 -0.503543
0.393884 -0.118467 -0.504173
0.396083 -0.118157 -0.503995
0.397584 -0.117919 -0.504624
0.399777 -0.11766 -0.504445
0.401284 -0.117505 -0.505076
0.402795 -0.117427 -0.505711
0.40364 -0.117412 -0.507165
0.405157 -0.117405 -0.507802
0.406013 -0.11741 -0.509263
0.407534 -0.117422 -0.509899
0.408397 -0.117392 -0.511364
0.409918 -0.117335 -0.512001
0.411438 -0.117222 -0.512639
0.412956 -0.117085 -0.513276
0.414472 -0.116927 -0.513913
0.416636 -0.116676 -0.513716
0.418146 -0.116491 -0.514351
0.419659 -0.116331 -0.514987
0.421174 -0.116192 -0.515623
0.42269 -0.116065 -0.516259
0.424206 -0.115943 -0.516895
0.425723 -0.115819 -0.517531
0.427239 -0.115698 -0.518167
0.428755 -0.115569 -0.518804
0.430272 -0.115461 -0.51944
0.431788 -0.115327 -0.520076
0.432691 -0.115241 -0.521559
0.434823 -0.115146 -0.521349
0.436342 -0.115075 -0.521985
0.437259 -0.115034 -0.523473
0.438781 -0.11497 -0.52411
0.439706 -0.114921 -0.525601
0.441229 -0.114822 -0.52624
0.442753 -0.114737 -0.526879
0.444866 -0.114596 -0.526661
0.446386 -0.11446 -0.527298
0.447319 -0.114369 -0.528795
0.448841 -0.114247 -0.529433
0.450363 -0.114119 -0.530072
0.451886 -0.113998 -0.530711
0.453409 -0.113895 -0.53135
0.454933 -0.113789 -0.531988
0.456457 -0.113698 -0.532627
0.457982 -0.113629 -0.533266
0.458948 -0.113603 -0.534774
0.460476 -0.113512 -0.535415
0.462005 -0.113425 -0.536056
0.463523 -0.113237 -0.536693
0.465031 -0.112982 -0.537325
0.467087 -0.112599 -0.537083
0.469132 -0.112199 -0.536834
0.471745 -0.111869 -0.535749
0.473748 -0.111285 -0.535471
0.532297 -0.111084 -0.586459
0.53552 -0.110399 -0.58341
0.537833 -0.109693 -0.58218
0.540158 -0.109093 -0.580955
0.542098 -0.108758 -0.580668
0.544038 -0.10847 -0.580382
0.54557 -0.108194 -0.581023
0.547509 -0.108009 -0.580743
0.549048 -0.107795 -0.581385
0.550592 -0.107607 -0.58203
0.55214 -0.107465 -0.582679
0.553691 -0.107388 -0.583331
0.555243 -0.107384 -0.583984
0.556438 -0.107397 -0.585584
0.557638 -0.107391 -0.587187
0.558843 -0.107393 -0.588792
0.560403 -0.107343 -0.589448
0.561961 -0.107237 -0.590102
0.563516 -0.107075 -0.590753
0.565066 -0.106864 -0.591402
0.566967 -0.106657 -0.591102
0.56886 -0.106459 -0.590801
0.570406 -0.106274 -0.591448
0.571957 -0.106147 -0.592099
0.57318 -0.106037 -0.593706
0.574739 -0.106035 -0.594364
0.575978 -0.106003 -0.595981
0.577537 -0.105951 -0.596637
0.579097 -0.105911 -0.597294
0.580346 -0.105812 -0.598915
0.581908 -0.105764 -0.599572
0.583472 -0.105724 -0.600228
0.584733 -0.105691 -0.601859
0.586298 -0.105622 -0.602515
0.587862 -0.105509 -0.603171
0.589426 -0.105377 -0.603827
0.590988 -0.105221 -0.604483
0.592551 -0.105081 -0.605139
0.594116 -0.104994 -0.605794
0.595682 -0.104955 -0.606449
0.596974 -0.105014 -0.608092
0.59827 -0.105051 -0.609739
0.59957 -0.10506 -0.611387
0.601145 -0.104989 -0.612046
0.602719 -0.104876 -0.612706
0.604287 -0.104701 -0.613364
0.605855 -0.104522 -0.614022
0.607696 -0.104363 -0.613694
0.609259 -0.104169 -0.61435
0.610824 -0.103992 -0.615006
0.612392 -0.103845 -0.615664
0.613961 -0.103706 -0.616323
0.615532 -0.103596 -0.616982
0.617101 -0.103465 -0.61764
0.61867 -0.103325 -0.618298
0.620238 -0.103178 -0.618957
0.621808 -0.103051 -0.619615
0.623378 -0.10293 -0.620274
0.624949 -0.102832 -0.620932
0.626521 -0.102763 -0.62159
0.627872 -0.102713 -0.623261
0.629448 -0.102663 -0.62392
0.63081 -0.10265 -0.625595
0.632389 -0.102608 -0.626255
0.633969 -0.102556 -0.626916
0.635338 -0.10249 -0.628596
0.636918 -0.102384 -0.629257
0.638494 -0.102224 -0.629919
0.640071 -0.102075 -0.630581
0.641847 -0.101897 -0.630222
0.64342 -0.10174 -0.630882
0.644995 -0.101615 -0.631543
0.646385 -0.101545 -0.633231
0.647968 -0.101514 -0.633892
0.649376 -0.101595 -0.635584
0.650789 -0.101662 -0.637278
0.652208 -0.101738 -0.638975
0.653632 -0.101777 -0.640675
0.655226 -0.101722 -0.64134
0.656819 -0.101639 -0.642006
0.658245 -0.101575 -0.643714
0.660002 -0.101374 -0.643341
0.661585 -0.101174 -0.644009
0.663161 -0.100941 -0.644676
0.664899 -0.100637 -0.644301
0.666629 -0.100327 -0.643924
0.66836 -0.100101 -0.643547
0.669936 -0.0999201 -0.64421
0.671515 -0.0997831 -0.644873
0.673099 -0.0996921 -0.645538
0.674544 -0.0995683 -0.647245
0.676133 -0.0995069 -0.647911
0.677719 -0.0994268 -0.648577
0.679183 -0.0993336 -0.650292
0.680889 -0.0992452 -0.649907
0.682362 -0.0991889 -0.651626
0.683949 -0.0991697 -0.652292
0.685434 -0.0992071 -0.654015
0.686925 -0.0992869 -0.655741
0.688421 -0.0993953 -0.65747
0.689833 -0.0994929 -0.660264
0.691434 -0.0995362 -0.660935
0.692947 -0.0995211 -0.662671
0.694553 -0.0994332 -0.663345
0.696155 -0.0992681 -0.664018
0.697757 -0.0991021 -0.664691
0.699445 -0.0988496 -0.664295
0.701046 -0.0987084 -0.664967
0.70265 -0.0986189 -0.665638
0.704184 -0.0987113 -0.667383
0.705595 -0.099068 -0.67128
0.707149 -0.0991593 -0.673029
0.708705 -0.0990601 -0.67477
0.710325 -0.0989856 -0.675458
0.711946 -0.0989701 -0.676145
0.713561 -0.09875 -0.67682
0.715293 -0.0984917 -0.675351
0.716963 -0.0982495 -0.67495
0.718565 -0.0980574 -0.675622
0.720115 -0.0978369 -0.677371
0.721694 -0.0978349 -0.679133
0.723285 -0.0979179 -0.680901
0.724873 -0.0981519 -0.682673
0.726447 -0.0983788 -0.68446
0.728076 -0.0983481 -0.688379
0.747806 -0.0658853 -0.530076
0.749164 -0.0656558 -0.529956
0.750511 -0.0654294 -0.529734
0.751355 -0.0651944 -0.52955
0.752629 -0.0649419 -0.529177
0.753865 -0.0646762 -0.528711
0.755046 -0.0643908 -0.528147
0.756178 -0.0640889 -0.52751
0.757243 -0.0637656 -0.526788
0.758259 -0.0634279 -0.526023
0.759194 -0.0630616 -0.525188
0.760572 -0.0626831 -0.523798
0.761442 -0.0622895 -0.522901
0.762803 -0.0619419 -0.521515
0.763781 -0.0615961 -0.520745
0.764826 -0.0612837 -0.520057
0.76594 -0.0610187 -0.519472
0.767086 -0.0607937 -0.518961
0.767819 -0.0603593 -0.518753
0.769008 -0.0601699 -0.518311
0.770189 -0.0599992 -0.517887
0.770989 -0.0595408 -0.51774
0.772147 -0.0593559 -0.517285
0.773272 -0.0591593 -0.51679
0.774386 -0.0589705 -0.51628
0.775476 -0.0587684 -0.515734
0.776563 -0.0585822 -0.515192
0.777643 -0.0584154 -0.514661
0.778531 -0.0579401 -0.514666
0.779656 -0.0578812 -0.514253
0.780638 -0.0575137 -0.514412
0.781791 -0.0576312 -0.514163
0.782858 -0.0574748 -0.514551
0.380628 -0.119139 -0.486624
0.382106 -0.119088 -0.487249
0.38358 -0.119109 -0.48788
0.384368 -0.1191 -0.489286
0.385156 -0.119159 -0.490711
0.385248 -0.11932 -0.492944
0.386043 -0.119421 -0.494378
0.386844 -0.119547 -0.495815
0.388343 -0.119574 -0.496444
0.389147 -0.119543 -0.497881
0.391351 -0.119378 -0.497707
0.392847 -0.119189 -0.498334
0.394336 -0.118953 -0.498957
0.396526 -0.118645 -0.498776
0.398708 -0.118316 -0.498591
0.400189 -0.118056 -0.499212
0.402369 -0.117807 -0.499026
0.403857 -0.117646 -0.499651
0.405351 -0.117544 -0.500277
0.406845 -0.117502 -0.500905
0.407673 -0.117488 -0.502353
0.408509 -0.117482 -0.503805
0.410011 -0.117487 -0.504434
0.411512 -0.117439 -0.505064
0.413013 -0.117346 -0.505694
0.41451 -0.117196 -0.506322
0.416 -0.116978 -0.506948
0.418148 -0.116698 -0.506746
0.419629 -0.116455 -0.50737
0.421772 -0.116196 -0.507166
0.423256 -0.116007 -0.50779
0.424743 -0.115829 -0.508415
0.426874 -0.115596 -0.508203
0.427722 -0.1155 -0.509668
0.429848 -0.115321 -0.509452
0.431338 -0.115219 -0.510076
0.432207 -0.115215 -0.511547
0.433703 -0.11515 -0.512172
0.434584 -0.115147 -0.513647
0.436082 -0.115096 -0.514273
0.43758 -0.115034 -0.5149
0.439078 -0.114959 -0.515528
0.440576 -0.114893 -0.516156
0.441473 -0.114857 -0.517635
0.442975 -0.114807 -0.518265
0.444477 -0.114731 -0.518894
0.445381 -0.114668 -0.520377
0.446881 -0.114541 -0.521007
0.448382 -0.114411 -0.521637
0.45047 -0.114213 -0.521408
0.451967 -0.114064 -0.522036
0.453462 -0.113908 -0.522665
0.454958 -0.113756 -0.523293
0.456458 -0.113652 -0.523922
0.457959 -0.113587 -0.52455
0.458895 -0.113565 -0.526048
0.4604 -0.113517 -0.526677
0.461905 -0.113469 -0.527307
0.462852 -0.113442 -0.528808
0.464361 -0.113399 -0.52944
0.465868 -0.113318 -0.530072
0.467375 -0.11322 -0.530707
0.468876 -0.113055 -0.531336
0.470374 -0.112862 -0.531962
0.471858 -0.11258 -0.532578
0.473895 -0.112254 -0.53233
0.475914 -0.111855 -0.532072
0.479042 -0.111604 -0.530132
0.480473 -0.11093 -0.53069
0.537912 -0.109776 -0.573511
0.539449 -0.109633 -0.574156
0.540979 -0.109416 -0.574795
0.542917 -0.109228 -0.574516
0.544446 -0.109021 -0.575154
0.545979 -0.108852 -0.575795
0.547509 -0.108643 -0.576431
0.549041 -0.108455 -0.577069
0.550964 -0.108362 -0.576797
0.552493 -0.108179 -0.577434
0.554021 -0.107962 -0.578068
0.555555 -0.107826 -0.57871
0.557089 -0.107721 -0.579356
0.55827 -0.10762 -0.580939
0.559808 -0.107626 -0.581593
0.561346 -0.107611 -0.582244
0.562885 -0.107561 -0.582895
0.564426 -0.107472 -0.583543
0.565964 -0.107297 -0.584186
0.567495 -0.10708 -0.584824
0.569026 -0.106879 -0.585462
0.570557 -0.106675 -0.586101
0.572092 -0.106509 -0.586743
0.573969 -0.106462 -0.586446
0.575172 -0.10632 -0.588039
0.576712 -0.106265 -0.588689
0.578252 -0.106217 -0.589337
0.579473 -0.10614 -0.590946
0.581015 -0.106084 -0.591594
0.582555 -0.105968 -0.592241
0.584095 -0.10585 -0.592887
0.585635 -0.105721 -0.593533
0.587175 -0.105598 -0.594179
0.588716 -0.105483 -0.594825
0.590255 -0.105352 -0.595471
0.591794 -0.105216 -0.596117
0.593333 -0.10507 -0.596763
0.594872 -0.104926 -0.597409
0.596412 -0.10481 -0.598055
0.597954 -0.104799 -0.5987
0.599222 -0.104862 -0.600334
0.600496 -0.104968 -0.601969
0.601777 -0.105033 -0.603608
0.603063 -0.105042 -0.605248
0.604616 -0.104989 -0.605901
0.606168 -0.104863 -0.606552
0.607716 -0.104678 -0.607201
0.609258 -0.104455 -0.607847
0.611075 -0.104274 -0.60751
0.612883 -0.104043 -0.607168
0.614415 -0.103805 -0.60781
0.615949 -0.10357 -0.608454
0.617488 -0.103369 -0.6091
0.619287 -0.10324 -0.608753
0.620584 -0.103151 -0.610399
0.622131 -0.103031 -0.611048
0.623679 -0.102929 -0.611697
0.625227 -0.102833 -0.612346
0.626774 -0.102739 -0.612995
0.628321 -0.102645 -0.613644
0.629647 -0.102572 -0.615303
0.631199 -0.102512 -0.615953
0.63275 -0.102449 -0.616603
0.634091 -0.10242 -0.618269
0.635646 -0.102376 -0.618919
0.6372 -0.10231 -0.61957
0.638551 -0.102255 -0.621241
0.640108 -0.102173 -0.621893
0.641664 -0.102071 -0.622545
0.64322 -0.101971 -0.623198
0.644775 -0.101837 -0.623851
0.646328 -0.101691 -0.624502
0.647882 -0.101556 -0.625155
0.649436 -0.101407 -0.625806
0.650991 -0.101292 -0.626459
0.652548 -0.101218 -0.627111
0.653933 -0.101199 -0.628795
0.655496 -0.101187 -0.629447
0.656892 -0.101204 -0.631136
0.658292 -0.101217 -0.632829
0.659859 -0.101152 -0.633483
0.661424 -0.101035 -0.634139
0.662986 -0.100891 -0.634795
0.664546 -0.100711 -0.635451
0.666106 -0.100547 -0.636106
0.667822 -0.100407 -0.635722
