ply
format ascii 1.0
comment PCL generated
element vertex 1398
property float x
property float y
property float z
element camera 0
property float view_px
property float view_py
property float view_pz
property float x_axisx
property float x_axisy
property float x_axisz
property float y_axisx
property float y_axisy
property float y_axisz
property float z_axisx
property float z_axisy
property float z_axisz
property float focal
property float scalex
property float scaley
property float centerx
property float centery
property int viewportx
property int viewporty
property float k1
property float k2
end_header
0.35102436 0.13540326 -0.67565256
0.35233307 0.13214277 -0.6684801
0.3524048 0.12968835 -0.66070557
0.347725 0.12608492 -0.67038
0.34864727 0.12349549 -0.66042072
0.34163621 0.11465205 -0.66202295
0.33720273 0.10632022 -0.66426319
0.32832649 0.09873794 -0.66896605
0.31910866 0.095605038 -0.67729163
0.30584756 0.095901951 -0.70072222
0.30864236 0.094242156 -0.69280648
0.31200984 0.094662853 -0.68599117
0.31127498 0.092712276 -0.67739302
0.30176187 0.093042292 -0.70108235
0.30286884 0.089922391 -0.69420636
0.30424803 0.089801699 -0.68559724
0.30484122 0.090166561 -0.67890251
0.29352874 0.086700492 -0.70260483
0.29603764 0.085442536 -0.69467646
0.29574099 0.082720809 -0.68649197
0.2832441 0.084185787 -0.71295422
0.28580651 0.082381718 -0.70510823
0.28591859 0.080385648 -0.69497651
0.27217191 0.084520586 -0.72365135
0.27492437 0.080828644 -0.71517283
0.27572173 0.077937342 -0.70552832
0.26116985 0.085470952 -0.72998685
0.26303643 0.081424527 -0.72349453
0.40760717 0.35764551 -0.82325381
0.42707911 0.28079206 -0.73117065
0.43096861 0.2750659 -0.7232607
0.43023726 0.2712436 -0.71906561
0.43012279 0.26682183 -0.71533424
0.4245429 0.2671572 -0.72552311
0.42505234 0.26562306 -0.72034353
0.36931953 0.16438718 -0.6957953
0.36941725 0.16199169 -0.68891263
0.37338698 0.15638813 -0.68101466
0.36652753 0.15757568 -0.698856
0.36740276 0.15555683 -0.69517022
0.37167785 0.14611337 -0.67729336
0.3673352 0.14150257 -0.67174554
0.36019099 0.13650061 -0.6835832
0.3628757 0.13992344 -0.67738599
0.356341 0.13377766 -0.68494135
0.34916776 0.12771602 -0.67955887
0.34217396 0.11115454 -0.6842792
0.34009206 0.10718615 -0.67848551
0.33694562 0.10295789 -0.67046809
0.33173516 0.10130468 -0.67898303
0.31942859 0.098371133 -0.69537413
0.32213145 0.097260214 -0.68763715
0.32411593 0.097902283 -0.68193156
0.31196651 0.099424653 -0.71276408
0.31040949 0.098360322 -0.70472372
0.31129295 0.097354002 -0.69592953
0.29838815 0.097511746 -0.72705185
0.30098841 0.095592707 -0.71561158
0.30166042 0.091432542 -0.7070291
0.2923336 0.093726106 -0.72713441
0.2943683 0.089795321 -0.71601659
0.29668748 0.088209778 -0.70521468
0.27944136 0.091505647 -0.74454689
0.28533408 0.089863442 -0.7349211
0.2863746 0.088771962 -0.72589064
0.28685263 0.087331146 -0.71656013
0.27823535 0.089539692 -0.73622859
0.27634427 0.087491654 -0.72748905
0.41672418 0.36282468 -0.82874995
0.41263449 0.35632586 -0.82728404
0.40607822 0.35187209 -0.82518524
0.42651367 0.27412081 -0.73712963
0.42927274 0.27238092 -0.72811288
0.41818699 0.27696177 -0.74512428
0.42416915 0.26942128 -0.74104977
0.42723578 0.26618257 -0.73541939
0.41458055 0.27572903 -0.75364649
0.41765282 0.27131903 -0.74785918
0.42263976 0.26514244 -0.74341482
0.42348188 0.26070192 -0.73395985
0.42223293 0.25708842 -0.72595257
0.41725391 0.25094903 -0.73740214
0.41807732 0.24907753 -0.72959185
0.38034663 0.2934711 -0.81157428
0.41531095 0.24041013 -0.73049378
0.37830961 0.1746902 -0.70838439
0.37553877 0.17063199 -0.70344794
0.37148747 0.1641383 -0.70244235
0.37564269 0.15266168 -0.68712336
0.36896345 0.15851524 -0.7122308
0.36623722 0.15436801 -0.70553225
0.36908448 0.14902699 -0.69518179
0.3724052 0.14478895 -0.68754333
0.37094337 0.14069913 -0.68142575
0.36856991 0.13862698 -0.68744832
0.35641035 0.12796743 -0.68838352
0.35263291 0.1216042 -0.69075036
0.34501234 0.11426394 -0.7039088
0.34629801 0.11582209 -0.69576383
0.33781254 0.11095942 -0.70697796
0.34152508 0.11063162 -0.69529307
0.34053838 0.10787641 -0.68884677
0.33011684 0.10987066 -0.71430945
0.33304012 0.10613073 -0.70850724
0.3363381 0.10349259 -0.69857979
0.33627093 0.10094235 -0.6906268
0.33625183 0.10291314 -0.68541372
0.32400659 0.10572162 -0.71544129
0.324426 0.103857 -0.70822215
0.32861155 0.099253371 -0.69791538
0.31500509 0.10145901 -0.72522968
0.313164 0.10092302 -0.7191478
0.30197221 0.099036261 -0.73568028
0.30684137 0.098930165 -0.72791898
0.29357174 0.095462367 -0.74668944
0.29458892 0.09455514 -0.73802364
0.28287157 0.10406711 -0.76865441
0.2865158 0.094399095 -0.74812132
0.28547931 0.091059946 -0.74018228
0.42569128 0.36274403 -0.83920741
0.42185557 0.35863602 -0.83583009
0.415676 0.35320747 -0.83805722
0.41628182 0.35663113 -0.83145982
0.40713137 0.35399872 -0.85089451
0.41094995 0.34959614 -0.84494513
0.41219059 0.3125242 -0.81448877
0.40220764 0.31102163 -0.81528586
0.39632803 0.30464295 -0.8204245
0.41811591 0.2661539 -0.76172537
0.41884395 0.26423681 -0.75431597
0.42060813 0.26098627 -0.7477625
0.42144933 0.25837597 -0.74063283
0.38965011 0.29768699 -0.81854814
0.4207488 0.25412628 -0.75093263
0.41841492 0.25080448 -0.74381977
0.38395318 0.28848594 -0.82112586
0.4158006 0.24291697 -0.74012983
0.41488743 0.24223283 -0.73512441
0.38107893 0.28105327 -0.82178432
0.3811895 0.27873448 -0.8148964
0.38151008 0.27679303 -0.80765343
0.38047248 0.1803347 -0.72796357
0.38084581 0.17196836 -0.72364497
0.37924764 0.17066889 -0.71521115
0.37789181 0.16294992 -0.71467805
0.36896053 0.15509927 -0.72555447
0.3684071 0.15584378 -0.71784282
0.36224923 0.15192272 -0.72864568
0.36454839 0.14747655 -0.71987265
0.36899936 0.1386459 -0.70212525
0.36981857 0.13584206 -0.6948263
0.35997385 0.1440035 -0.72922742
0.36169833 0.14075135 -0.72341102
0.36509106 0.13543427 -0.71460706
0.36716822 0.13127686 -0.70552367
0.34765381 0.1349923 -0.73093992
0.34972683 0.13160627 -0.72648519
0.36078939 0.11830897 -0.70176405
0.34866932 0.12058994 -0.71673584
0.34994408 0.11678768 -0.70885211
0.3388454 0.11418245 -0.71706444
0.34172049 0.11277729 -0.71031582
0.33091801 0.10749297 -0.72812611
0.32807389 0.11046577 -0.72061944
0.32368714 0.10698112 -0.73133451
0.32288644 0.10636263 -0.72162336
0.31632033 0.10092664 -0.73341072
0.30675766 0.10049863 -0.75091392
0.30904946 0.099440888 -0.74040949
0.29607272 0.099814124 -0.7588191
0.29798377 0.097989701 -0.75060689
0.45396277 0.40421441 -0.85106027
0.45162222 0.39495724 -0.85152823
0.44943026 0.39220089 -0.84531575
0.4469088 0.38375875 -0.84541184
0.43634522 0.37523487 -0.85654235
0.43795085 0.37508374 -0.84853852
0.43089601 0.37184221 -0.8587172
0.43205377 0.36890924 -0.85106492
0.42803437 0.3617982 -0.85278285
0.42725322 0.36016646 -0.84589678
0.41979837 0.3609004 -0.85980713
0.42098415 0.35592628 -0.85610342
0.42183709 0.35239318 -0.84520978
0.41207585 0.35893366 -0.85935563
0.41450316 0.354835 -0.8537184
0.41430935 0.33847243 -0.84671485
0.41436389 0.33717299 -0.83948886
0.41790673 0.32431117 -0.83177453
0.41928488 0.32161084 -0.82519281
0.41571757 0.31579676 -0.82598454
0.41473755 0.31446886 -0.81952679
0.39736468 0.3211183 -0.85346454
0.40039417 0.31676376 -0.84770912
0.40736425 0.30803698 -0.82796085
0.40836838 0.31061491 -0.82032615
0.39181343 0.31573731 -0.85228831
0.39608648 0.31047758 -0.84729791
0.39814165 0.30498281 -0.83785641
0.39849418 0.30494472 -0.82903284
0.39328995 0.29875442 -0.83950287
0.39329574 0.29539451 -0.83143133
0.38970622 0.29384133 -0.82478708
0.41431227 0.26143554 -0.77875865
0.41991529 0.25678745 -0.76088917
0.42172101 0.24645998 -0.75491941
0.38706294 0.28774869 -0.83344293
0.41898596 0.24058549 -0.74865609
0.42426917 0.2261856 -0.74010986
0.38320914 0.28072688 -0.83303475
0.38162982 0.28120065 -0.82715011
0.39007789 0.19335589 -0.74916524
0.38655764 0.18242837 -0.74321783
0.38179395 0.17672367 -0.7446112
0.38145775 0.17527588 -0.73554462
0.37423435 0.17449744 -0.75207406
0.37625697 0.17182508 -0.74586755
0.38049418 0.16727754 -0.7386812
0.38258031 0.16265014 -0.72824192
0.37922093 0.15909128 -0.72119874
0.37046054 0.16950502 -0.75277001
0.3704294 0.16539368 -0.74859309
0.37488729 0.15656883 -0.73102832
0.36783016 0.15703247 -0.74989611
0.36494228 0.1529271 -0.74091166
0.36067349 0.14233094 -0.73489445
0.3630701 0.13446695 -0.72648484
0.36822948 0.1279718 -0.71995407
0.36681542 0.12509359 -0.7108916
0.35321152 0.13419946 -0.74411124
0.35360956 0.1361766 -0.73697925
0.35752046 0.1298272 -0.72619039
0.36101368 0.12584579 -0.71728545
0.36306494 0.12008345 -0.71204364
0.3677043 0.11895458 -0.70987785
0.35024697 0.12774244 -0.73824
0.35080159 0.12250869 -0.72814411
0.34798074 0.11805863 -0.72181731
0.34590375 0.11281609 -0.72987169
0.34638679 0.11376455 -0.72381145
0.33530137 0.10856159 -0.73178631
0.32851079 0.10351636 -0.74319029
0.29283386 0.14049055 -0.82137549
0.31384811 0.10669817 -0.7588765
0.31832516 0.10288791 -0.75308895
0.32028899 0.099431261 -0.7447992
0.29419079 0.12951081 -0.81015944
0.29533312 0.12645157 -0.80354416
0.29848471 0.12150391 -0.79547095
0.30125225 0.11758116 -0.78961128
0.29863608 0.10886821 -0.77616072
0.3014228 0.10510845 -0.77024102
0.30834448 0.10310738 -0.76175421
0.29539686 0.11192783 -0.77957708
0.3016904 0.10231718 -0.76317829
0.45389596 0.40110478 -0.85960847
0.44961593 0.39645302 -0.86406946
0.45152599 0.39167157 -0.85503781
0.44491762 0.38946351 -0.86523634
0.44871825 0.38537449 -0.85722744
0.44763967 0.37999183 -0.84857827
0.44099346 0.38221288 -0.8641147
0.44414115 0.37779027 -0.85898697
0.44399059 0.37764481 -0.85190052
0.43588266 0.37720188 -0.86583024
0.43659338 0.37575394 -0.86144328
0.42483196 0.35460892 -0.85342193
0.42540672 0.35437211 -0.84852248
0.41461381 0.33586809 -0.85526359
0.41629067 0.32851815 -0.84540755
0.41742072 0.32549021 -0.83643776
0.41051465 0.32259738 -0.85728145
0.41182366 0.32441285 -0.85034889
0.41393894 0.31917971 -0.8391794
0.41372716 0.31387368 -0.83261096
0.40286422 0.3221266 -0.85118526
0.40424627 0.31589699 -0.84601146
0.40761814 0.31278351 -0.84093904
0.40929824 0.30982608 -0.83460903
0.40069777 0.30807105 -0.84053439
0.39362496 0.30170855 -0.84732336
0.39168569 0.29616752 -0.84367341
0.42142573 0.24879478 -0.76498556
0.38987076 0.28828916 -0.84557444
0.38747555 0.28549191 -0.84223408
0.42269564 0.2411637 -0.76885086
0.42318353 0.2385686 -0.75911599
0.42329749 0.22981854 -0.75218815
0.42366439 0.22812863 -0.74460751
0.37790072 0.28682324 -0.85743707
0.38156304 0.28262615 -0.84999073
0.38277793 0.27900708 -0.84177858
0.38634208 0.26876357 -0.82501024
0.42389306 0.22254995 -0.75308043
0.42439842 0.22025149 -0.74595612
0.37097424 0.2806567 -0.85712034
0.37633586 0.27598909 -0.85334134
0.40930471 0.20351313 -0.75802803
0.41063643 0.20393889 -0.75320774
0.40148216 0.19450291 -0.74981046
0.39468667 0.19212428 -0.76141971
0.39590874 0.193756 -0.75422591
0.38976452 0.18632638 -0.76358128
0.38922879 0.1833955 -0.7549504
0.38623783 0.18095167 -0.7473895
0.38148355 0.1786211 -0.76308733
0.38153449 0.17976058 -0.75460052
0.37477031 0.17184804 -0.76518667
0.37464663 0.17639811 -0.75726432
0.38008106 0.16232246 -0.73740834
0.38076487 0.161448 -0.73279881
0.36998072 0.16659485 -0.75855225
0.37235165 0.1595614 -0.74897444
0.37660825 0.15818213 -0.74246591
0.36696285 0.15681431 -0.7587114
0.36497724 0.15351382 -0.7517904
0.35972786 0.15044378 -0.76065922
0.36560357 0.1471529 -0.75534332
0.36580065 0.14408633 -0.74554175
0.36454722 0.1366632 -0.74085647
0.35789859 0.13408785 -0.75677079
0.36109665 0.13425626 -0.74992687
0.3534424 0.1311236 -0.75629109
0.35030872 0.12836888 -0.74996221
0.34983164 0.12180516 -0.74032265
0.35046774 0.11923821 -0.73480958
0.34057426 0.13429028 -0.77470237
0.34155619 0.12953696 -0.77190363
0.34292921 0.12097111 -0.75926775
0.34506309 0.12042902 -0.75178516
0.34688538 0.11609208 -0.74283385
0.34705266 0.11400035 -0.7358427
0.31037474 0.15544991 -0.82910293
0.33606938 0.12007631 -0.76918268
0.33646041 0.11736519 -0.76225907
0.33846441 0.11333095 -0.75357205
0.3397336 0.11005639 -0.74444616
0.34187198 0.10983006 -0.73760903
0.30819234 0.14402229 -0.82112807
0.32473457 0.11621729 -0.77944279
0.32713822 0.11400823 -0.77182001
0.32724231 0.11170453 -0.7626189
0.32894263 0.10773811 -0.753685
0.3320533 0.10622015 -0.74670023
0.30037367 0.13901193 -0.81973088
0.30472055 0.13265717 -0.81373632
0.30668694 0.12776394 -0.80640227
0.31260791 0.11611083 -0.79032016
0.31798214 0.11267088 -0.78221488
0.31871974 0.10953866 -0.77293414
0.31766096 0.106653 -0.76555365
0.29301479 0.1347654 -0.81773591
0.29343453 0.13154204 -0.8145563
0.30447453 0.11453039 -0.78620309
0.30719092 0.11036803 -0.78054732
0.31073138 0.10523188 -0.77270764
0.41807911 0.32840291 -0.85610014
0.41510543 0.32459301 -0.85735404
0.39604744 0.29269511 -0.85176766
0.39313701 0.28954616 -0.85210508
0.42111301 0.23570204 -0.77086902
0.4242909 0.230639 -0.76316184
0.41817474 0.22907813 -0.7734285
0.42468268 0.2225994 -0.76803893
0.42331472 0.21894705 -0.76057249
0.42309561 0.21467358 -0.75176924
0.37855664 0.26870146 -0.85228288
0.39084092 0.2606408 -0.83923876
0.3946192 0.25564519 -0.83161527
0.39833859 0.25037476 -0.82651234
0.4132967 0.22161998 -0.7773872
0.41452578 0.21648785 -0.76845413
0.41850129 0.21274573 -0.76091999
0.40664765 0.2165097 -0.79026818
0.41297534 0.20931825 -0.77058971
0.4114399 0.2063432 -0.76152778
0.40249264 0.19922617 -0.77537376
0.40409434 0.19926375 -0.76405489
0.40421069 0.19618459 -0.75629765
0.3941496 0.19857226 -0.77929771
0.3959583 0.19508107 -0.7731024
0.39855656 0.19531572 -0.76589322
0.3908323 0.18845768 -0.77590913
0.38771841 0.18450263 -0.76822734
0.38507584 0.17966981 -0.77785289
0.3838025 0.17857863 -0.76980543
0.38256672 0.17154868 -0.77621025
0.37783349 0.17117265 -0.77200633
0.36606067 0.17161478 -0.79610527
0.37438345 0.15920642 -0.7694568
0.36241865 0.16862668 -0.79854804
0.3619521 0.16277474 -0.79208398
0.36303866 0.16024327 -0.78447104
0.36457703 0.15704685 -0.77391684
0.36653227 0.15625466 -0.76596671
0.36164525 0.1498639 -0.7753287
0.36024383 0.14929351 -0.76996225
0.3643986 0.14184847 -0.75724912
0.36856183 0.13518097 -0.75197083
0.35337988 0.14090279 -0.78176349
0.35734743 0.14116074 -0.76903796
0.36092588 0.13728073 -0.76001424
0.34488374 0.13752812 -0.78532207
0.34694502 0.14062925 -0.77539164
0.35084361 0.134269 -0.76902068
0.35157463 0.13010216 -0.76132059
0.33582288 0.13131644 -0.79325211
0.34002516 0.13101529 -0.78281838
0.3443127 0.12632409 -0.76845551
0.34628221 0.1247144 -0.76264727
0.31513819 0.15112671 -0.8265453
0.3214694 0.14584 -0.82179856
0.32428855 0.13964786 -0.81487423
0.32635918 0.13352372 -0.80727965
0.33095634 0.12916034 -0.80360115
0.33127466 0.12612557 -0.79564917
0.33660126 0.12374066 -0.78327942
0.33652779 0.12151152 -0.77435958
0.31412008 0.14281331 -0.81946564
0.31518948 0.1375792 -0.81377459
0.31972545 0.131321 -0.80766183
0.32318908 0.12431232 -0.80331939
0.32681686 0.12078089 -0.79298097
0.32852876 0.11876009 -0.78289479
0.33117056 0.11645203 -0.77544117
0.313669 0.12663214 -0.80473512
0.31802046 0.12171704 -0.79997891
0.31991783 0.11750559 -0.79145837
0.41826731 0.23104741 -0.80178219
0.4184148 0.22875106 -0.79308927
0.39066046 0.25559384 -0.84622741
0.39513823 0.24958926 -0.83909613
0.3996003 0.24360937 -0.83200508
0.40364447 0.24121913 -0.82349366
0.40698835 0.23610999 -0.8159256
0.41052136 0.23155582 -0.81150967
0.41670766 0.22055386 -0.79142672
0.4130033 0.21966732 -0.78497255
0.39098921 0.2469185 -0.84975755
0.3940616 0.24539229 -0.84334463
0.40010038 0.23480219 -0.82542902
0.40441424 0.23086245 -0.81847441
0.40826717 0.2239455 -0.81138104
0.40868974 0.21731511 -0.80078608
0.40638232 0.21803021 -0.79468685
0.40906599 0.212954 -0.78414804
0.41095746 0.20724474 -0.7774384
0.41092491 0.203825 -0.77056038
0.40481088 0.20741135 -0.79558653
0.40550154 0.2036235 -0.78767687
0.40810215 0.20320745 -0.7783404
0.39873615 0.19696009 -0.78921896
0.39481556 0.18894026 -0.79098064
0.39099047 0.18615034 -0.78432018
0.38348877 0.18406032 -0.80218256
0.3872458 0.18183036 -0.79356092
0.38857567 0.17896807 -0.78603607
0.37612507 0.1838264 -0.81146389
0.37946805 0.17929028 -0.80348974
0.38103616 0.17495868 -0.7953164
0.38028666 0.1727982 -0.78537434
0.37836444 0.16978122 -0.77850229
0.36928049 0.17703696 -0.81294709
0.36899561 0.17448118 -0.80344677
0.37218535 0.17063904 -0.79427975
0.37290263 0.16728611 -0.78540581
0.37768641 0.16049588 -0.7797628
0.36379924 0.17027216 -0.81411022
0.36134627 0.16759978 -0.80606103
0.36025432 0.16280158 -0.79933631
0.36805338 0.1605244 -0.78548032
0.37027752 0.15941118 -0.7812376
0.36021018 0.15955645 -0.80823404
0.36191875 0.1540585 -0.80057639
0.36241901 0.15090163 -0.79146004
0.36138347 0.14783417 -0.78316867
0.35794154 0.14491594 -0.80122262
0.35789344 0.14275241 -0.79426301
0.35822269 0.14366882 -0.78644317
0.34740368 0.14302351 -0.81208283
0.35027266 0.1402652 -0.804263
0.34989354 0.13678609 -0.79507095
0.32893708 0.15061271 -0.83723575
0.32997748 0.14703526 -0.82856715
0.33694345 0.14019892 -0.82135129
0.33866256 0.13830732 -0.81319135
0.33908918 0.13545854 -0.80400616
0.34107518 0.13235861 -0.79594195
0.42001009 0.22763106 -0.79888469
0.4139652 0.22660783 -0.80714953
0.41789868 0.22176963 -0.80307817
0.41858864 0.22266005 -0.79649556
0.39015067 0.24815126 -0.86598015
0.38870269 0.2470666 -0.8591485
0.39620107 0.23883739 -0.8432039
0.40079126 0.23370238 -0.83741635
0.40508303 0.22264224 -0.82114053
0.40748969 0.21811752 -0.81322134
0.40869474 0.21761197 -0.80594993
0.38912427 0.24127911 -0.8611955
0.38908327 0.23601142 -0.85593343
0.39585108 0.23122472 -0.84886676
0.40700758 0.20999146 -0.81581867
0.40745169 0.20685352 -0.80780882
0.40549532 0.20324865 -0.80161726
0.40030044 0.20252834 -0.81840891
0.40162385 0.19957876 -0.809744
0.4027974 0.19624682 -0.80114567
0.39805946 0.18899864 -0.80242455
0.39504537 0.1856996 -0.79623628
0.38510278 0.1860484 -0.81231064
0.38992247 0.18556301 -0.80306619
0.37684083 0.18510114 -0.82158762
0.37117264 0.17848009 -0.82325953
0.36455271 0.17169027 -0.8249315
0.36322674 0.1678275 -0.81793088
0.3624523 0.16387895 -0.82533866
0.36073378 0.16038534 -0.81885427
0.35968584 0.15607545 -0.80999851
0.35884526 0.15003936 -0.82012278
0.35398743 0.15158798 -0.8123852
0.35635993 0.14920069 -0.80511624
0.34710234 0.14669721 -0.82949901
0.3484571 0.14656386 -0.82219213
0.34933209 0.14641583 -0.81448853
0.34168631 0.14755993 -0.83834696
0.34003702 0.14424635 -0.83100373
0.40274477 0.22933351 -0.84074038
0.39044774 0.23688219 -0.86884356
0.3951984 0.22635801 -0.85313177
0.4005222 0.22158509 -0.84525144
0.40452671 0.21727329 -0.83840209
0.40563929 0.2089844 -0.82209605
0.38942906 0.22958364 -0.867908
0.38968331 0.22870201 -0.86165988
0.39419097 0.22136125 -0.85710323
0.39770135 0.21358107 -0.8487736
0.39976871 0.20923692 -0.84078211
0.40081313 0.20485075 -0.83326668
0.40048948 0.20467144 -0.8252933
0.398159 0.19871669 -0.83260936
0.39828429 0.19706289 -0.82556283
0.40138316 0.19027399 -0.81637216
0.40032369 0.18492459 -0.81080097
0.39399618 0.18402199 -0.81790024
0.38366154 0.1821993 -0.82908195
0.37124202 0.19217212 -0.86021793
0.37430331 0.1882963 -0.85525745
0.37674952 0.17731336 -0.83827084
0.37581831 0.17715693 -0.83227241
0.36948153 0.1703684 -0.83730912
0.37056535 0.17317334 -0.83393037
0.36174572 0.1659283 -0.84946346
0.36226168 0.16649751 -0.84045237
0.36079827 0.16150737 -0.83265072
0.36337382 0.15732072 -0.82770795
0.35234806 0.16412956 -0.85866719
0.35557565 0.16133325 -0.85191828
0.35760731 0.15848219 -0.84432095
0.35922727 0.15526767 -0.83551788
0.3606067 0.1509914 -0.82848006
0.34576005 0.16378672 -0.86730462
0.34894767 0.15824856 -0.86366248
0.35113847 0.1544966 -0.85520852
0.35149753 0.15168682 -0.84604311
0.35117349 0.14994082 -0.83606446
0.34307113 0.15381883 -0.8611095
0.34328228 0.14965518 -0.85459435
0.34342179 0.14770032 -0.84574145
0.40274608 0.27656558 -0.90893966
0.404405 0.25169852 -0.88586909
0.40015507 0.24960163 -0.89594579
0.40092397 0.24921639 -0.88869613
0.3988874 0.24340691 -0.88345253
0.39638174 0.23763843 -0.87835032
0.39468369 0.23284996 -0.87734061
0.39065039 0.22626139 -0.87436163
0.39053452 0.22036386 -0.86436605
0.39479443 0.21611188 -0.85607338
0.39001358 0.21861026 -0.87691677
0.38884437 0.21408029 -0.87011725
0.3916086 0.20831846 -0.86058336
0.39448062 0.20423034 -0.85184425
0.39837915 0.19890015 -0.84447229
0.40019462 0.19400364 -0.83848733
0.40038541 0.18958569 -0.8291586
0.39983556 0.18812992 -0.82251388
0.38430992 0.20646079 -0.87362623
0.38644537 0.20190844 -0.86366695
0.38898 0.19700834 -0.85382813
0.39199838 0.19161689 -0.8474918
0.39722899 0.18433411 -0.83148074
0.39893436 0.18334857 -0.82398361
0.37716246 0.19992183 -0.87326688
0.3787345 0.19616923 -0.86225533
0.38020697 0.1928239 -0.85368878
0.38449132 0.1866699 -0.84687388
0.38856301 0.18119796 -0.84045398
0.38966638 0.18192783 -0.83321834
0.36959946 0.19423799 -0.87386501
0.37033436 0.1899083 -0.86428732
0.37405092 0.18263702 -0.85712075
0.37496969 0.18236782 -0.84724128
0.37854406 0.17783761 -0.84253782
0.35247681 0.20229782 -0.90710038
0.36973667 0.18609647 -0.87716246
0.3719267 0.18285894 -0.8690272
0.37314287 0.17818764 -0.86108118
0.37284589 0.17366584 -0.85147709
0.3716644 0.17293897 -0.84400666
0.34684214 0.20111683 -0.90660238
0.35145238 0.19665752 -0.90375382
0.3556866 0.18184675 -0.88612121
0.35721582 0.1787214 -0.8804661
0.36266762 0.17415997 -0.87267029
0.36591133 0.1682276 -0.86073923
0.3663893 0.16817407 -0.8535254
0.34830141 0.1785631 -0.88645732
0.35181955 0.17381664 -0.87857366
0.35378727 0.16908109 -0.86903727
0.35790282 0.16315618 -0.86238134
0.35782146 0.16462179 -0.85432118
0.34295624 0.17280491 -0.88301581
0.34518594 0.16979058 -0.87709367
0.34600058 0.16643339 -0.87136078
0.40600023 0.27656943 -0.91339517
0.40885109 0.27989241 -0.9138478
0.40487036 0.27130884 -0.91623825
0.40886199 0.25085187 -0.90048689
0.40813348 0.25044554 -0.89377451
0.4011761 0.25252879 -0.90808135
0.39908928 0.24908781 -0.90009457
0.40076557 0.24340039 -0.89068282
0.39854965 0.24178565 -0.90023327
0.39762747 0.23691462 -0.89397246
0.39838111 0.23363629 -0.88526362
0.39607725 0.22963458 -0.8955828
0.39413038 0.22614846 -0.8867135
0.39231488 0.22316279 -0.88044447
0.39116347 0.21804821 -0.88820571
0.38888171 0.21592064 -0.88105947
0.3838411 0.20973055 -0.89015144
0.38466892 0.2080704 -0.88251841
0.39638773 0.19065851 -0.84460908
0.39791432 0.18498424 -0.84073246
0.37376636 0.20916076 -0.89885026
0.37546477 0.20630081 -0.89162755
0.37738863 0.20282608 -0.88355041
0.3574155 0.2166125 -0.9279772
0.36714604 0.20370272 -0.90190464
0.36829829 0.20075776 -0.89283735
0.37090802 0.19643934 -0.88509631
0.35385242 0.2133556 -0.92618775
0.35690638 0.20991769 -0.92299366
0.35835096 0.20459777 -0.90887791
0.35911983 0.19880678 -0.90166849
0.36205804 0.19422315 -0.89409906
0.36453882 0.18997242 -0.88666302
0.36618048 0.18533735 -0.88016611
0.36824644 0.17950626 -0.87203157
0.37206715 0.17544809 -0.86188191
0.37248188 0.17158927 -0.85673946
0.35280451 0.19176359 -0.90079081
0.35571119 0.18786466 -0.89550972
0.35838223 0.18447706 -0.88866055
0.36202785 0.18096852 -0.88028818
0.36446506 0.17722541 -0.8750723
0.36540511 0.17191376 -0.86550432
0.41895998 0.29867804 -0.94232273
0.42387277 0.29465064 -0.93934733
0.4249979 0.29061332 -0.9316417
0.42652142 0.28736004 -0.92605996
0.41215542 0.27466306 -0.92085838
0.40946338 0.25934076 -0.92127717
0.41305745 0.25209776 -0.9094997
0.41671094 0.24996805 -0.90433389
0.41993791 0.24605331 -0.89861715
0.40272656 0.25234237 -0.92199248
0.40152234 0.24852654 -0.91416609
0.40199533 0.24196504 -0.9139297
0.3991845 0.23888715 -0.90630364
0.39904219 0.23023739 -0.90629232
0.3961373 0.22466066 -0.90157896
0.39444664 0.21738493 -0.90125865
0.39270031 0.21548586 -0.89454842
0.38863474 0.21132769 -0.90334892
0.38768193 0.21093775 -0.89703351
0.3794685 0.20695317 -0.912655
0.38084164 0.20693263 -0.90624088
0.37135226 0.20561801 -0.91417503
0.37331867 0.20487091 -0.90836161
0.43100944 0.27895787 -0.92417085
0.41943878 0.28614885 -0.9442628
0.4203006 0.28182602 -0.93566322
0.42341202 0.27725452 -0.92430943
0.43055165 0.26957747 -0.91966182
0.41284433 0.27964097 -0.94656342
0.4164978 0.27362537 -0.94001973
0.41931632 0.27068546 -0.93058735
0.4080587 0.27281505 -0.94946998
0.41391942 0.26843917 -0.94363648
0.41381752 0.25918302 -0.92942435
0.41326964 0.25710899 -0.92429948
0.41398945 0.25592655 -0.917337
0.42688337 0.24233694 -0.89830023
0.39757124 0.26041862 -0.95093316
0.4006575 0.25666973 -0.94459456
0.40549234 0.25212431 -0.93452257
0.39555562 0.25678927 -0.95075715
0.39824843 0.25328657 -0.94717318
0.40313077 0.24740277 -0.93415636
0.40230414 0.24207598 -0.92736316
0.40556538 0.23533481 -0.92177212
0.4032357 0.2340712 -0.9146772
0.40270936 0.22807878 -0.91197962
0.40287331 0.21946238 -0.91106826
0.39778462 0.21652016 -0.90897858
0.38930413 0.21023275 -0.91632867
0.39032122 0.21110511 -0.90974689
0.3804782 0.21140876 -0.92588979
0.3821556 0.20864993 -0.91743338
0.43754175 0.27193496 -0.92270797
0.42071524 0.26653898 -0.9362663
0.40758842 0.26361424 -0.94931012
0.41319031 0.26155776 -0.94282317
0.41773495 0.25682455 -0.93674397
0.4169715 0.25522321 -0.93080276
0.43209347 0.23833548 -0.89768583
0.40437338 0.26084694 -0.94948697
0.40674475 0.25730234 -0.94425774
0.40969285 0.2544485 -0.93906206
0.3965205 0.25032583 -0.95268518
0.40103772 0.24715146 -0.94697648
0.40483391 0.2415849 -0.94278347
0.40417823 0.24123818 -0.93438745
0.40508127 0.22907116 -0.93550628
0.40434468 0.22757861 -0.92767215
0.40679017 0.22378735 -0.91887683
0.40489379 0.21985902 -0.93104243
0.40151522 0.21608946 -0.92044544
0.3930546 0.20908445 -0.93266112
0.39635596 0.20997193 -0.92262834
0.38674432 0.21068567 -0.92951256
0.4054116 0.23053007 -0.94778657
0.4057349 0.22962999 -0.94242024
0.40374023 0.22267582 -0.94977742
0.40419689 0.2204292 -0.9426946
0.40364748 0.21590194 -0.93441153
0.39681822 0.2222385 -0.96067554
0.39517006 0.21712841 -0.95783782
0.40057725 0.21076548 -0.94469845
0.39957938 0.21010637 -0.93806058
0.40364471 0.20838752 -0.93151373
0.40027097 0.22488697 -0.95988077
0.40257397 0.22334203 -0.95473236
0.39756507 0.21578474 -0.95510375
0.3996281 0.20990314 -0.94908869
0.41748205 0.28551489 -0.94382703
0.42242205 0.29672876 -0.94245476
0.4264034 0.30160946 -0.94100004
0.40946549 0.23566058 -0.92988747
0.41407052 0.23843107 -0.93080008
0.42189643 0.23905665 -0.93103331
0.41683346 0.24330631 -0.93300009
0.42317 0.24527164 -0.9320001
0.41940999 0.25115466 -0.93004537
0.42068139 0.25040379 -0.92967904
0.41587093 0.27689427 -0.93283397
0.41795516 0.28083083 -0.93535852
0.4230696 0.28622237 -0.93311644
0.42434308 0.29537356 -0.93513274
0.4241803 0.30298525 -0.93598306
0.40762013 0.2262869 -0.92474627
0.41396978 0.22736034 -0.92471439
0.42073154 0.22795059 -0.92200005
0.40798944 0.23384424 -0.92782861
0.41603354 0.23346882 -0.92786562
0.42456582 0.23502107 -0.92513603
0.42611 0.24541645 -0.92457145
0.41700286 0.25453734 -0.92519027
0.42207792 0.25172377 -0.92381889
0.4126671 0.26792234 -0.92111742
0.4161568 0.27411935 -0.9256649
0.42166057 0.27495554 -0.92321849
0.41905677 0.2788513 -0.92975664
0.42685798 0.28396478 -0.92478687
0.42478368 0.29541919 -0.92492265
0.42096573 0.30368337 -0.92900002
0.40163872 0.21676049 -0.91200006
0.41042238 0.21929698 -0.91214377
0.40700305 0.22080928 -0.91694283
0.41629651 0.22402501 -0.91579545
0.42287016 0.22911605 -0.91553783
0.42712358 0.23532504 -0.91482323
0.43069792 0.23710193 -0.91200006
0.45778835 0.2397164 -0.91108841
0.46505851 0.23974469 -0.91100007
0.4293842 0.24477282 -0.91681224
0.43235776 0.24499133 -0.91258508
0.45709002 0.24538948 -0.91175014
0.46266302 0.24436674 -0.91200006
0.417564 0.25714695 -0.91814119
0.42594153 0.25533634 -0.91735578
0.43414462 0.25501353 -0.91207016
0.45657492 0.25452295 -0.91118664
0.46491742 0.2554743 -0.9123432
0.47190395 0.25689262 -0.91087943
0.41703284 0.26496732 -0.91963166
0.4262 0.26555139 -0.9170714
0.43395722 0.26351768 -0.9117437
0.46506816 0.26524979 -0.91387504
0.47322297 0.26492384 -0.91275007
0.41956809 0.27196497 -0.91908771
0.425098 0.27491331 -0.91584611
0.45884123 0.27254316 -0.91098666
0.46515384 0.27404767 -0.91200012
0.4276903 0.28506941 -0.91533709
0.42954648 0.28335044 -0.91083097
0.42151746 0.31521574 -0.91100007
0.40983519 0.2194919 -0.90389091
0.41447914 0.22013183 -0.90200007
0.44856104 0.22868998 -0.90075994
0.45383382 0.2291692 -0.90279901
0.42938811 0.23331267 -0.90906835
0.43324792 0.23492354 -0.90516591
0.44538131 0.23514295 -0.90444446
0.45485449 0.23554814 -0.90804225
0.46398544 0.23665054 -0.90750009
0.43689445 0.2452172 -0.91026479
0.44496796 0.24492928 -0.90925997
0.45294976 0.24818015 -0.91000003
0.46688256 0.24442407 -0.90756154
0.47119173 0.24706326 -0.90604264
0.43843561 0.25205439 -0.91003311
0.44440153 0.25461951 -0.90906054
0.45107946 0.25376123 -0.91011459
0.46983021 0.2508038 -0.90900004
0.47246653 0.25211561 -0.90850008
0.43689206 0.26797384 -0.90952349
0.44472873 0.26528379 -0.90899998
0.43065885 0.27431294 -0.91100407
0.43556145 0.27483314 -0.90735471
0.44479138 0.27462342 -0.90618491
0.45398295 0.27610675 -0.9075557
0.42954069 0.28910333 -0.90650004
0.43511865 0.28537115 -0.90482664
0.4454546 0.28365728 -0.90218669
0.4277086 0.29564598 -0.90586847
0.43124482 0.29453039 -0.90100002
0.45310354 0.29510117 -0.90082115
0.42494792 0.30509385 -0.90568089
0.43254095 0.30401173 -0.90113872
0.45442048 0.300172 -0.90076685
0.4246251 0.31475896 -0.90457261
0.42243448 0.32308203 -0.90355259
0.39862043 0.21464217 -0.89460325
0.40704179 0.21484914 -0.89200002
0.41791809 0.221028 -0.89400005
0.42517933 0.22334781 -0.89415944
0.43432885 0.22559097 -0.89480704
0.44388077 0.2236214 -0.89529496
0.45077106 0.22322975 -0.89697057
0.43802652 0.23120077 -0.89985061
0.43794543 0.28848606 -0.90004933
0.44339883 0.28850412 -0.9003737
0.4364121 0.29500231 -0.89980745
0.4446114 0.29530755 -0.89900011
0.45077521 0.29564282 -0.90028876
0.43678889 0.30574274 -0.89900601
0.4448871 0.30609712 -0.89714581
0.45265582 0.3059074 -0.89650005
0.42916381 0.31839576 -0.89880258
0.43527782 0.31451499 -0.89694178
0.44476262 0.3147063 -0.89470005
0.4270758 0.32603744 -0.89817512
0.35943955 0.17841162 -0.87990069
0.36464944 0.18498161 -0.88119817
0.37062737 0.1892612 -0.87994409
0.37233463 0.19180119 -0.88161051
0.39175761 0.20679605 -0.88237321
0.40000758 0.21129394 -0.88900006
0.42643169 0.21755582 -0.88184786
0.43563905 0.21654552 -0.88404804
0.44498354 0.21548308 -0.88369447
0.45026997 0.21521327 -0.88202834
0.42842412 0.2220383 -0.88932425
0.35830811 0.16672698 -0.87281793
0.36093891 0.16850488 -0.87318367
0.35870722 0.17398149 -0.87816662
0.36265844 0.17559469 -0.87398589
0.36931491 0.18057135 -0.87235528
0.36722508 0.18138659 -0.87632632
0.37128407 0.18622389 -0.87409812
0.37238723 0.19223502 -0.87161881
0.3861734 0.20536068 -0.87332785
0.39830881 0.20891717 -0.87900007
0.42792451 0.20961565 -0.87110561
0.43548787 0.20751165 -0.87178952
0.44438925 0.20781864 -0.87302715
0.40647453 0.21226574 -0.87550002
0.42298567 0.21354252 -0.875
0.43382952 0.211458 -0.87683344
0.44818458 0.21157049 -0.87793845
0.4513815 0.21097182 -0.87601733
0.34825212 0.15584913 -0.86425006
0.35431129 0.15811159 -0.86460006
0.35984772 0.16130441 -0.86400008
0.3626267 0.16690953 -0.86504787
0.36758554 0.17303909 -0.86453122
0.37101272 0.17773832 -0.86405462
0.37231624 0.18510978 -0.86499316
0.37641662 0.19376588 -0.86307979
0.38121253 0.19949913 -0.86250007
0.43673027 0.19889885 -0.86117083
0.39234841 0.20436406 -0.86137092
0.41805547 0.20757641 -0.86202878
0.42503244 0.20697097 -0.86500001
0.43621656 0.2038638 -0.86776513
0.444803 0.20275128 -0.86699998
0.34253982 0.14846666 -0.85194504
0.34771332 0.1530261 -0.85841495
0.35107306 0.15486363 -0.8548435
0.36222813 0.16642934 -0.85500002
0.36821124 0.17389223 -0.85150003
0.37384075 0.17928693 -0.85938913
0.37403545 0.18550278 -0.85466105
0.37936652 0.19333231 -0.85788661
0.38383257 0.19710203 -0.85527599
0.42998871 0.19865979 -0.85757709
0.43577582 0.19732103 -0.85900003
0.3897222 0.20022385 -0.8540045
0.39472014 0.20416364 -0.85900003
0.41339764 0.20665984 -0.85800004
0.42334712 0.20208529 -0.85600007
0.34412101 0.14763905 -0.84641415
0.35059285 0.1496799 -0.84500003
0.35522068 0.15513021 -0.84533334
0.35891527 0.16210471 -0.84594309
0.36136261 0.16583452 -0.84500003
0.36501139 0.17040887 -0.84100002
0.37050623 0.17701443 -0.84721637
0.37358627 0.1847378 -0.84525001
0.37956429 0.18985271 -0.84904552
0.3850688 0.19513854 -0.84653503
0.39005402 0.19767478 -0.84300005
0.39525467 0.20032713 -0.84559673
0.40837148 0.20012316 -0.84200007
0.4134953 0.20131154 -0.84700006
0.32703465 0.12101227 -0.83300006
0.33688179 0.13958509 -0.83594233
0.34428915 0.14479628 -0.83625007
0.35423619 0.15158854 -0.83342248
0.36041951 0.16292848 -0.83374774
0.36020735 0.16613367 -0.83300006
0.36745921 0.17630543 -0.83189082
0.37841165 0.18430117 -0.83410829
0.38258418 0.19192205 -0.83550006
0.39380977 0.19796294 -0.83603144
0.40361142 0.19802195 -0.83977216
0.32922426 0.11781131 -0.82300001
0.32752877 0.12254763 -0.82387727
0.33043045 0.13549063 -0.81976026
0.3353456 0.14014259 -0.82702911
0.34432736 0.14378241 -0.82360011
0.35465029 0.1558568 -0.82656437
0.35782799 0.15970632 -0.82045883
0.36279988 0.16746615 -0.82806057
0.36565992 0.17445117 -0.82633334
0.37581438 0.18345667 -0.8237769
0.38183939 0.1861116 -0.82768965
0.3829231 0.19011037 -0.82340765
0.39518598 0.19361027 -0.82566673
0.40241718 0.19392294 -0.82700002
0.32780808 0.11811951 -0.81396294
0.32831118 0.12542126 -0.81566668
0.331476 0.12554701 -0.81102455
0.33079663 0.13194652 -0.81368923
0.33417711 0.13438651 -0.81483334
0.34032452 0.13900137 -0.81400001
0.34627375 0.14367913 -0.81278241
0.35103709 0.15028925 -0.81055582
0.35605577 0.15581197 -0.81462461
0.36013502 0.16364798 -0.81501812
0.36595169 0.17286776 -0.81438422
0.37093911 0.17859741 -0.81299549
0.37496451 0.18243273 -0.81566352
0.38495138 0.18715005 -0.81512767
0.39414567 0.18798816 -0.8126598
0.40175804 0.18851471 -0.81686789
0.32792318 0.12010344 -0.80900002
0.32975119 0.12682502 -0.80661589
0.33581656 0.13342524 -0.8058604
0.34086379 0.13975279 -0.80453873
0.34721625 0.14424622 -0.80480367
0.34895262 0.15010272 -0.80400002
0.35350311 0.15546262 -0.80464345
0.35931906 0.16232285 -0.80575424
0.36257264 0.16911098 -0.80431634
0.36748296 0.17321056 -0.80399203
0.37213749 0.17697325 -0.80236232
0.37728134 0.18091924 -0.80433339
0.38476828 0.1847775 -0.80429256
0.39253876 0.18463606 -0.8000083
0.32461268 0.11658264 -0.79666662
0.32802299 0.12154035 -0.79779971
0.33096299 0.1255829 -0.79536003
0.33664566 0.13182622 -0.79361272
0.34579006 0.14617272 -0.7966665
0.34945834 0.15092984 -0.79400301
0.35275352 0.1554376 -0.79525006
0.35990945 0.16149792 -0.7969681
0.36304563 0.16684294 -0.79485607
0.36923823 0.17152368 -0.79539019
0.37559095 0.17451456 -0.79630655
0.38394052 0.17865121 -0.79425001
0.32742852 0.12019407 -0.78992528
0.32777184 0.12465638 -0.78100002
0.33217278 0.12846276 -0.78719783
0.33888513 0.13859026 -0.7895
0.34670907 0.14432356 -0.78738922
0.35502762 0.155754 -0.78561372
0.35784325 0.16022819 -0.78993529
0.36652943 0.16385236 -0.78632843
0.37308753 0.16714154 -0.78513891
0.37569743 0.17178521 -0.78730083
0.38419425 0.17484692 -0.78428286
0.39138973 0.17687051 -0.78633338
0.33279532 0.12968659 -0.77639347
0.33596367 0.13423455 -0.77575773
0.33963034 0.14007759 -0.77608335
0.3460134 0.14589031 -0.77617002
0.34961289 0.15001348 -0.77700001
0.35670152 0.15321793 -0.77710903
0.36384261 0.15702587 -0.77389187
0.3669768 0.1612445 -0.77556378
0.37284911 0.16575468 -0.77456468
0.38471037 0.16932124 -0.77281886
0.37878719 0.17017823 -0.77848619
0.38922805 0.1736709 -0.77843791
0.39167377 0.17174104 -0.77450001
0.31202132 0.10658678 -0.75977725
0.31600457 0.11234895 -0.75952595
0.32013047 0.11768907 -0.76004112
0.34063512 0.13953492 -0.76208007
0.34475112 0.14325936 -0.764162
0.35312185 0.14832035 -0.76319999
0.35672227 0.14945817 -0.76596701
0.36649498 0.15622301 -0.76512706
0.37524626 0.16303094 -0.76450008
0.38443035 0.1647594 -0.76500005
0.31283671 0.10953571 -0.75400001
0.31647956 0.11354748 -0.75556052
0.32097298 0.11987516 -0.75703305
0.32508805 0.12502486 -0.7559306
0.32998818 0.1310913 -0.7565636
0.33553728 0.13479571 -0.75405174
0.34166911 0.13834859 -0.75400454
0.34766188 0.14226599 -0.75574231
0.3548978 0.1463407 -0.75367284
0.3603346 0.14972469 -0.75647044
0.36357036 0.1546642 -0.75450724
0.373983 0.15935734 -0.75468612
0.38552365 0.15625459 -0.75243175
0.39166236 0.15692596 -0.75466675
0.37856087 0.16039339 -0.75823051
0.38448432 0.16042896 -0.75827205
0.29187551 0.089933895 -0.74362659
0.29316941 0.093348771 -0.74215972
0.30833071 0.10242365 -0.74333119
0.31292486 0.10722721 -0.74324781
0.31745371 0.11225568 -0.74471438
0.32081488 0.11751269 -0.74359334
0.32479063 0.12358683 -0.74536085
0.330542 0.12915228 -0.74250251
0.32985291 0.13029037 -0.7489996
0.33661529 0.13251616 -0.74470973
0.35535255 0.14429381 -0.74385726
0.3618972 0.14684565 -0.74225354
0.3782748 0.14778517 -0.74100006
0.38369364 0.14809333 -0.74229622
0.36621431 0.15242328 -0.74515414
0.37539274 0.15252127 -0.74600011
0.38386929 0.1516155 -0.74648684
0.29233456 0.08888787 -0.7391957
0.29526132 0.094906524 -0.73570675
0.30531022 0.098699294 -0.73358405
0.31231669 0.098787814 -0.73257262
0.2982856 0.10005488 -0.738599
0.30463636 0.10092767 -0.73800623
0.31643346 0.1052709 -0.73674995
0.32209042 0.10773478 -0.7324546
0.32245862 0.11512291 -0.73549283
0.3276071 0.1223179 -0.73706162
0.33472592 0.12701544 -0.73559034
0.34193707 0.1284447 -0.73147917
0.33817169 0.13081491 -0.7385
0.34602284 0.13177493 -0.73591441
0.35381514 0.13653225 -0.73501354
0.37784645 0.13888191 -0.73092723
0.38070479 0.13911106 -0.73189104
0.35801372 0.14167988 -0.73636097
0.36404115 0.14184514 -0.73800701
0.3743912 0.14421904 -0.7359091
0.38266721 0.14392386 -0.7373333
0.29231066 0.089029476 -0.72399998
0.296141 0.094764635 -0.72633392
0.30478269 0.09642823 -0.72467363
0.31257081 0.099083073 -0.7238974
0.31734797 0.10354899 -0.72568011
0.32309335 0.1066613 -0.72504723
0.32491338 0.11550659 -0.72492379
0.33128271 0.11855698 -0.72095597
0.34456664 0.12638836 -0.72484243
0.34817085 0.13110192 -0.72742885
0.35632789 0.13260947 -0.72685111
0.36554939 0.13653538 -0.72512507
0.37430969 0.13523446 -0.72587568
0.36412367 0.14013718 -0.73046362
0.28673622 0.083890222 -0.713
0.29260254 0.088312335 -0.71386909
0.29978633 0.091346934 -0.71277821
0.29701608 0.091366991 -0.7171455
0.30703557 0.094340809 -0.71620488
0.31208831 0.099635459 -0.71445912
0.31861129 0.10306375 -0.71634084
0.32462057 0.10581395 -0.71684176
0.32939562 0.11145647 -0.71848571
0.33472472 0.11604462 -0.71700001
0.3447786 0.11797059 -0.71555567
0.35245737 0.1197076 -0.71286333
0.34643224 0.12218055 -0.7193687
0.35470504 0.12543808 -0.71547621
0.36770096 0.12611949 -0.71521002
0.37186989 0.12679079 -0.7171492
0.36010841 0.13126241 -0.71971393
0.36421677 0.13208535 -0.7179994
0.28485143 0.079139456 -0.70275009
0.2866441 0.082995415 -0.70575058
0.2931639 0.086508282 -0.7052772
0.29982096 0.090906039 -0.70691937
0.30569267 0.092118919 -0.70489424
0.31056872 0.098665386 -0.70560688
0.31717125 0.1017378 -0.70512903
0.32468557 0.10678155 -0.70416671
0.3329975 0.10717654 -0.70017779
0.33653161 0.11148176 -0.70550007
0.34596121 0.11469575 -0.70511872
0.35468012 0.11768704 -0.70589679
0.36418521 0.1182702 -0.70459616
0.35895139 0.12014388 -0.71017712
0.36405858 0.12022928 -0.71108919
0.28552133 0.077539682 -0.6935007
0.28873187 0.080626741 -0.69305801
0.29505873 0.084650077 -0.69384634
0.30188221 0.088813536 -0.69552463
0.30723366 0.0935468 -0.69328117
0.31279498 0.097999953 -0.69534606
0.31868184 0.10042769 -0.69469643
0.32615906 0.10618443 -0.6953333
0.33385846 0.10457989 -0.6943174
0.34145579 0.10890388 -0.69216883
0.3457841 0.11146302 -0.69473839
0.35720316 0.11387696 -0.69540006
0.36239544 0.11427782 -0.69720322
0.2855283 0.0761429 -0.68380588
0.29483432 0.084151529 -0.68433332
0.30283341 0.088494852 -0.68501288
0.30727014 0.091232009 -0.68459082
0.31352374 0.096253984 -0.68368793
0.31951576 0.10088493 -0.68775773
0.32507467 0.10308324 -0.68449622
0.33650324 0.10266344 -0.68537974
0.3421945 0.10926916 -0.68398988
0.34955522 0.11097504 -0.6890412
0.28431466 0.075088337 -0.67539012
0.29004771 0.080397464 -0.67468864
0.29596436 0.084016122 -0.67449999
0.30323213 0.089435287 -0.67459643
0.30851147 0.090879187 -0.67539972
0.31548548 0.095923923 -0.67509085
0.32435161 0.097572692 -0.67303556
0.33558112 0.09942919 -0.67150664
0.32682887 0.099071071 -0.67718875
0.33536783 0.1015463 -0.67718691
0.34488386 0.10521951 -0.67507911
0.28458151 0.075761013 -0.66510165
0.29535145 0.083926715 -0.66314673
0.30295867 0.087713949 -0.66567081
0.31045824 0.091466397 -0.66087431
0.30911934 0.090753548 -0.6660037
0.31644514 0.092451975 -0.6656
0.3249923 0.094017625 -0.66572732
0.33480242 0.096226037 -0.66628718
0.34349933 0.098744772 -0.66524762
0.27948725 0.068126082 -0.65600002
0.27981809 0.070898063 -0.65094399
0.2844905 0.074825816 -0.65555823
0.2947621 0.082481898 -0.65365285
0.30548319 0.085468583 -0.65490907
0.31554201 0.087337129 -0.65609097
0.32445225 0.088373214 -0.65500003
0.33512789 0.08848501 -0.65243578
0.32849208 0.091769129 -0.65994906
0.33523476 0.091915138 -0.65810806
0.34149504 0.092775956 -0.65801328
0.27953863 0.068243586 -0.6465174
0.28495538 0.07445778 -0.64533395
0.29497743 0.078590214 -0.64385718
0.30383173 0.078992844 -0.6411891
0.29886395 0.08062306 -0.64918536
0.30552161 0.081795134 -0.64691925
0.31493992 0.082417674 -0.64512503
0.32550439 0.084087148 -0.64530003
0.33360508 0.083993837 -0.64589667
0.2787756 0.068661526 -0.63522315
0.28203607 0.069754876 -0.63353485
0.28690654 0.071620397 -0.63533288
0.29508871 0.074490763 -0.63450003
0.30532888 0.076132812 -0.63482153
0.3142792 0.076663591 -0.63355422
0.32499707 0.076154731 -0.63359594
0.33180058 0.078502633 -0.63796473
0.3171002 0.080142133 -0.6392194
0.3231208 0.080334626 -0.63918298
0.27759111 0.065711439 -0.623734
0.28539616 0.066314429 -0.62504119
0.29494974 0.066787876 -0.62313551
0.30466628 0.067690447 -0.6220122
0.31575429 0.066581331 -0.62329084
0.32318768 0.06534142 -0.62469232
0.29651797 0.070624486 -0.62798381
0.3052631 0.071764745 -0.62756753
0.31472996 0.071884796 -0.62783366
0.3227565 0.071397886 -0.62865919
0.23938954 -0.035443936 -0.61019158
0.24182449 -0.03582726 -0.61099958
0.28656462 0.059180945 -0.61304897
0.29541358 0.058832251 -0.61242592
0.30446842 0.059556663 -0.61158454
0.31548405 0.057307463 -0.61322856
0.32087159 0.05817803 -0.61700004
0.27595565 0.061641909 -0.6156339
0.28519702 0.062260937 -0.61849999
0.29497439 0.061742291 -0.61766666
0.30378366 0.062326543 -0.61685717
0.31350037 0.062101912 -0.61844683
0.23592314 -0.043846354 -0.60777152
0.2450047 -0.045190711 -0.60576284
0.25124839 -0.047876559 -0.60325003
0.22874342 -0.038952779 -0.60900003
0.23589402 -0.035987806 -0.60885721
0.24505107 -0.036254834 -0.6071409
0.23117881 0.014445977 -0.60456961
0.23136149 0.014939768 -0.60196686
0.229624 0.025817441 -0.59968269
0.23097122 0.022181334 -0.60050005
0.26923096 0.059201796 -0.60185802
0.28485876 0.055560391 -0.60671431
0.2951037 0.054611083 -0.60600001
0.30381209 0.054252233 -0.60534209
0.31228614 0.053967319 -0.60590678
0.24970271 -0.041112136 -0.59755278
0.25150049 -0.043110516 -0.59340131
0.24732353 -0.034233633 -0.59421366
0.25130957 -0.037195969 -0.59133333
0.23613085 -0.023719592 -0.5972032
0.24320163 -0.026273144 -0.59298569
0.23366678 -0.01558903 -0.59036011
0.24103968 -0.019557653 -0.5900082
0.23523183 -0.0041022892 -0.59206045
0.24108988 -0.00076090911 -0.59004343
0.23432565 0.0042757606 -0.59220731
0.24096833 0.00110897 -0.58995104
0.23484081 0.015068763 -0.59358346
0.22855027 0.029091015 -0.59833336
0.23572876 0.025186233 -0.59629667
0.24131675 0.027209243 -0.5910899
0.22903435 0.034856725 -0.5944801
0.23499541 0.035087049 -0.59428322
0.24131516 0.032752573 -0.59057558
0.22881329 0.040592741 -0.59000003
0.23158279 0.040436845 -0.58985013
0.27111161 0.049992371 -0.59000003
0.28148898 0.048494156 -0.58982718
0.30682537 0.048082091 -0.59001249
0.25795212 0.057512078 -0.59000003
0.26555437 0.054660942 -0.59137863
0.27408543 0.052515678 -0.59411091
0.2855525 0.051068902 -0.59820002
0.30454761 0.050111834 -0.5948534
0.31099331 0.050686896 -0.59799325
0.25510818 -0.042942882 -0.58596885
0.27914885 -0.042975251 -0.58036494
0.28609565 -0.043134511 -0.58666664
0.25469428 -0.034936737 -0.58465475
0.28712314 -0.03798753 -0.58159071
0.29541183 -0.036636833 -0.5828948
0.24748078 -0.024106443 -0.58662301
0.25142431 -0.025545016 -0.58235711
0.23853238 -0.01349491 -0.58805913
0.24516712 -0.014589909 -0.58304352
0.23907389 -0.0073134471 -0.58749998
0.2433767 -0.0050397688 -0.58334619
0.23806912 0.0067221331 -0.58733332
0.2416641 0.0044337036 -0.58285266
0.23866299 0.013363071 -0.58759111
0.24292165 0.015522735 -0.5825333
0.24520677 0.025060656 -0.58450007
0.23877288 0.038689718 -0.58903009
0.24590442 0.035426773 -0.58408457
0.26664805 0.040195566 -0.57962805
0.27023971 0.039808657 -0.58009529
0.22825065 0.045792926 -0.58530146
0.23454952 0.043681029 -0.58425152
0.24184176 0.040782191 -0.58200008
0.25886118 0.045748055 -0.58018428
0.2652851 0.045583565 -0.58365113
0.27433735 0.045411233 -0.58387506
0.28575087 0.04616015 -0.58419245
0.29477954 0.046601258 -0.58417833
0.30247802 0.046648864 -0.58531141
0.22772558 0.051013008 -0.58001739
0.25513527 0.0538809 -0.58320045
0.26176322 0.051696461 -0.58800006
0.25961214 -0.04190363 -0.57989818
0.26473859 -0.04143931 -0.57687539
0.27426401 -0.041347399 -0.57703304
0.25845835 -0.033073179 -0.57820886
0.26443118 -0.034942996 -0.5736053
0.2840097 -0.032656625 -0.57663637
0.29604986 -0.031789891 -0.57753342
0.25630191 -0.02447911 -0.57735091
0.26511249 -0.025012765 -0.57238454
0.27495858 -0.024997368 -0.5717752
0.28438389 -0.024307638 -0.57338911
0.29530379 -0.024558868 -0.57487988
0.24917294 -0.011987003 -0.57856292
0.255274 -0.015321889 -0.57588243
0.26280317 -0.016289925 -0.57116652
0.2776618 -0.018296272 -0.57000005
0.28532529 -0.016217889 -0.57075429
0.29431859 -0.0154971 -0.57266676
0.24773377 -0.0039201905 -0.57644457
0.25372365 -0.0067572491 -0.57334781
0.26049539 -0.0098959701 -0.57092148
0.24856108 0.0046796496 -0.57469767
0.25102422 0.0010765257 -0.57000005
0.2477629 0.014325167 -0.57674521
0.2495355 0.016087478 -0.57315952
0.24885577 0.024714444 -0.57695585
0.25201321 0.02545508 -0.57239795
0.24911533 0.036631364 -0.5785712
0.25444576 0.034914471 -0.57547224
0.26453182 0.036666803 -0.57618761
0.27480876 0.037140924 -0.57375944
0.28478757 0.03545481 -0.57219774
0.29358011 0.03673191 -0.57168472
0.23690493 0.047204006 -0.57561505
0.24530581 0.044210047 -0.5738216
0.25352123 0.044986915 -0.5775789
0.2769863 0.041447993 -0.57790565
0.28539863 0.04150692 -0.57664144
0.29465401 0.041681331 -0.57590181
0.30006361 0.04318203 -0.57709134
0.22829704 0.054113686 -0.57590002
0.23190178 0.053536911 -0.57268751
0.25095683 0.051381655 -0.574
0.26736256 -0.013138697 -0.56789023
0.27422532 -0.014812349 -0.56787264
0.2823931 -0.012054397 -0.56825
0.25707352 -0.0029027059 -0.56595004
0.26370212 -0.0075208987 -0.56424558
0.27503228 -0.0085299211 -0.56278294
0.2862356 -0.0082792034 -0.5643428
0.29262611 -0.008539658 -0.56500006
0.25397786 0.0040020114 -0.56449676
0.27478212 0.0099882353 -0.56102341
0.25040349 0.014399891 -0.56533331
0.27583957 0.015945176 -0.56192142
0.28172335 0.018440904 -0.56110549
0.25436047 0.025601434 -0.56506336
0.26744121 0.028654894 -0.56301618
0.27508071 0.02455469 -0.56374073
0.28462917 0.024920182 -0.5633868
0.29218814 0.027066501 -0.56436366
0.25793055 0.030579919 -0.56886101
0.26489255 0.032332033 -0.56600004
0.27473813 0.031232866 -0.56857705
0.28749612 0.030056415 -0.56850004
0.29351765 0.032520887 -0.56844491
0.23766808 0.049178343 -0.56760007
0.24254544 0.049856208 -0.56812847
0.23640533 0.055681296 -0.5669353
0.24358489 0.053143501 -0.56573188
0.26596138 -0.0027609789 -0.56068486
0.2748372 -0.0030640722 -0.5596627
0.28424987 -0.0032708663 -0.55880958
0.29033539 -0.0018340899 -0.5595721
