ply
format ascii 1.0
comment Created by Open3D
element vertex 1637
property float x
property float y
property float z
end_header
0.117229 0.0763538 -0.904227
0.122128 0.0765329 -0.9035
0.126305 0.0766445 -0.903036
0.130456 0.0767289 -0.902466
0.135297 0.0768739 -0.901538
0.139359 0.0769016 -0.900752
0.144819 0.0769946 -0.899019
0.149993 0.0768854 -0.896564
0.155956 0.0768582 -0.893777
0.162466 0.0767483 -0.890081
0.202556 0.0751841 -0.859433
0.208137 0.0751226 -0.856289
0.213799 0.0750202 -0.853323
0.217542 0.0752077 -0.85229
0.222084 0.0750812 -0.851762
0.22493 0.0755749 -0.851919
0.228094 0.0755913 -0.852763
0.230524 0.0760503 -0.854328
0.232597 0.0759528 -0.856276
0.234442 0.0764398 -0.858829
0.236247 0.0768868 -0.861506
0.237883 0.0772746 -0.864322
0.239434 0.0773134 -0.866764
0.241419 0.0778456 -0.869318
0.243485 0.0780882 -0.871417
0.245696 0.0784088 -0.873384
0.247923 0.078743 -0.875345
0.250017 0.0789714 -0.877446
0.251796 0.0794281 -0.880222
0.253279 0.0796689 -0.883218
0.254746 0.0802953 -0.886788
0.256079 0.0804667 -0.889859
0.257506 0.0810234 -0.893493
0.259135 0.0816477 -0.896977
0.260818 0.0817109 -0.899392
0.263013 0.0822383 -0.901937
0.265079 0.0824767 -0.904148
0.267071 0.0826807 -0.906445
0.269146 0.0831961 -0.909076
0.27129 0.0837325 -0.911654
0.273546 0.0837166 -0.913383
0.276326 0.0839439 -0.914627
0.279144 0.0841843 -0.915768
0.282448 0.0844925 -0.91569
0.286671 0.0844137 -0.914495
0.290454 0.0844567 -0.914069
-0.0070454 0.0661138 -0.887964
-0.00454293 0.0667831 -0.889487
-0.000894115 0.0666883 -0.890468
0.00289382 0.0669534 -0.890903
0.00737544 0.0671161 -0.89064
0.0118424 0.0672812 -0.89036
0.0162921 0.0673932 -0.890245
0.0200539 0.0677037 -0.890384
0.0237507 0.0678558 -0.891103
0.0268754 0.0681699 -0.892138
0.029797 0.0683787 -0.89364
0.0323417 0.0687466 -0.895436
0.0346358 0.0690277 -0.8976
0.0367155 0.069301 -0.899923
0.0387702 0.069676 -0.902474
0.0404587 0.0700282 -0.905021
0.0421063 0.070345 -0.908336
0.0430504 0.0707554 -0.912065
0.0441122 0.0711411 -0.915722
0.0456939 0.0715613 -0.918674
0.0479678 0.0719579 -0.920914
0.0511495 0.0720855 -0.921959
0.056186 0.0723896 -0.921239
0.0618932 0.0723609 -0.919187
0.0682371 0.072359 -0.916465
0.0738472 0.0723242 -0.914403
0.079539 0.0724727 -0.912652
0.0844879 0.0725433 -0.911472
0.0893658 0.0725166 -0.910085
0.0942724 0.0725768 -0.908801
0.0992065 0.0726872 -0.907645
0.10417 0.0729519 -0.907126
0.107689 0.0729527 -0.906799
0.112607 0.07315 -0.906052
0.117473 0.0732772 -0.904985
0.121635 0.0733355 -0.904347
0.125832 0.0734935 -0.904021
0.129999 0.0736011 -0.903545
0.134824 0.0737697 -0.902567
0.139597 0.0738439 -0.901341
0.14431 0.073864 -0.89995
0.150395 0.0739683 -0.897384
0.155633 0.073892 -0.895099
0.161357 0.073708 -0.891883
0.209538 0.0720274 -0.855027
0.215196 0.0719522 -0.85215
0.218935 0.0720828 -0.851209
0.222813 0.0721774 -0.850854
0.226087 0.0723628 -0.851061
0.229059 0.0723645 -0.851957
0.23138 0.0727715 -0.853515
0.233444 0.0733749 -0.85577
0.235158 0.0734621 -0.858215
0.236819 0.0738521 -0.860993
0.238503 0.0742417 -0.86376
0.240282 0.0746892 -0.866445
0.242191 0.0748795 -0.868629
0.244376 0.0751923 -0.870588
0.246738 0.0752229 -0.87214
0.249036 0.0755858 -0.873996
0.251063 0.0757894 -0.876138
0.252944 0.0762862 -0.878797
0.254473 0.0765829 -0.881746
0.255802 0.0770911 -0.885392
0.257275 0.0776263 -0.889017
0.258502 0.0778313 -0.892105
0.259903 0.0783161 -0.895772
0.261551 0.0786639 -0.898721
0.263356 0.0789412 -0.901091
0.265698 0.0793474 -0.903562
0.267744 0.0796312 -0.905798
0.269597 0.0798994 -0.908246
0.271909 0.0803192 -0.91069
0.274306 0.0806347 -0.912591
0.276938 0.0808321 -0.914081
0.280243 0.0809852 -0.914469
0.284046 0.0811051 -0.914011
-0.00836293 0.0626351 -0.885107
-0.0053634 0.0628277 -0.886514
-0.00232882 0.0630617 -0.887853
0.000781768 0.0634818 -0.888835
0.0052021 0.0633912 -0.889128
0.0089713 0.0637435 -0.889308
0.0127335 0.0640662 -0.889413
0.0171745 0.0641289 -0.889504
0.020924 0.0643597 -0.889921
0.0245464 0.0644868 -0.890799
0.0276079 0.0647821 -0.891901
0.0304082 0.0649951 -0.893464
0.0328498 0.0653433 -0.895329
0.0350099 0.0656556 -0.897523
0.0368656 0.0660306 -0.900192
0.0386095 0.066383 -0.902995
0.0402576 0.0667466 -0.905879
0.0414834 0.0670914 -0.909466
0.0422931 0.0675613 -0.913229
0.0435152 0.0679101 -0.916832
0.0451809 0.0682913 -0.919751
0.0472889 0.0684431 -0.922108
0.0505462 0.0689613 -0.923375
0.0550156 0.0691671 -0.923142
0.0600513 0.069144 -0.921775
0.0664396 0.0692347 -0.919173
0.0721004 0.0692866 -0.917232
0.0777103 0.0692752 -0.915201
0.082621 0.0692495 -0.913858
0.0882972 0.0694685 -0.912166
0.0939018 0.0695708 -0.910322
0.0987643 0.0695821 -0.908976
0.103693 0.0697685 -0.908068
0.107212 0.069723 -0.907789
0.112146 0.0700246 -0.907203
0.116315 0.0700183 -0.906437
0.12119 0.0702613 -0.905599
0.125382 0.0704224 -0.905245
0.128891 0.0703475 -0.905104
0.133718 0.0706339 -0.904283
0.138485 0.0707164 -0.903048
0.143236 0.070801 -0.901813
0.148622 0.0709088 -0.899862
0.153097 0.0706667 -0.898093
0.160408 0.0707947 -0.893958
0.21045 0.0690686 -0.854841
0.216051 0.0690292 -0.851955
0.219689 0.0690926 -0.850765
0.223535 0.0692111 -0.850152
0.226845 0.0694097 -0.85029
0.229902 0.0694919 -0.851157
0.232238 0.0698721 -0.852669
0.234325 0.0698616 -0.854524
0.236168 0.0706183 -0.857345
0.237768 0.0706752 -0.859763
0.239359 0.0710262 -0.862595
0.241015 0.0713985 -0.865409
0.242974 0.0719151 -0.86793
0.245156 0.071901 -0.869619
0.247483 0.0722652 -0.871459
0.249847 0.0726448 -0.873248
0.25191 0.0728875 -0.875371
0.253781 0.0733246 -0.878077
0.255326 0.0736339 -0.881037
0.256657 0.0740903 -0.884713
0.257804 0.0743315 -0.8878
0.259141 0.0747883 -0.891493
0.260394 0.0752271 -0.895235
0.262064 0.0756587 -0.898766
0.263633 0.0759892 -0.901232
0.265622 0.0763444 -0.903986
0.267734 0.076632 -0.906644
0.269571 0.0770659 -0.909055
0.271632 0.0773248 -0.911728
0.273985 0.0775569 -0.913713
0.276925 0.0781166 -0.914674
0.279994 0.0779506 -0.915107
0.28421 0.0781375 -0.914054
-0.00975979 0.0589851 -0.882486
-0.00675038 0.0592173 -0.883868
-0.00379734 0.0593817 -0.885379
-0.000728669 0.059674 -0.886606
0.00238413 0.0600607 -0.887562
0.006119 0.0602752 -0.888046
0.0105582 0.0603036 -0.888238
0.0143135 0.0605948 -0.888468
0.0186899 0.0606212 -0.88874
0.0218204 0.0610608 -0.889319
0.0250058 0.0613958 -0.890267
0.0281811 0.0616322 -0.891512
0.0309026 0.0617911 -0.89329
0.0331089 0.0620779 -0.89549
0.0351207 0.0624061 -0.898072
0.0366795 0.0627381 -0.901047
0.0381418 0.0631212 -0.904031
0.0394966 0.0635769 -0.907033
0.0406653 0.0639203 -0.910644
0.0418602 0.0642633 -0.914269
0.0431897 0.0647156 -0.917391
0.0449251 0.0650821 -0.9204
0.0471885 0.065265 -0.922764
0.0500647 0.0656275 -0.924372
0.0538235 0.0658693 -0.924931
0.0582307 0.0658717 -0.924297
0.0639497 0.0660563 -0.922578
0.0696361 0.0661524 -0.920682
0.0752375 0.0661046 -0.918595
0.0816224 0.0663515 -0.91616
0.086488 0.0662721 -0.914732
0.0920323 0.0662744 -0.912656
0.0976392 0.0664208 -0.910821
0.102531 0.0665038 -0.909587
0.107475 0.0668102 -0.908911
0.111 0.0667381 -0.90867
0.115906 0.0670545 -0.907973
0.12009 0.0671022 -0.907356
0.124288 0.0672587 -0.906981
0.128482 0.067472 -0.906706
0.13266 0.0676249 -0.906305
0.1368 0.0676662 -0.905728
0.141575 0.0678136 -0.904573
0.146278 0.0678151 -0.90321
0.152333 0.0680531 -0.900632
0.157515 0.0678696 -0.898262
0.214152 0.0661168 -0.853845
0.219892 0.0662301 -0.851196
0.224274 0.0663401 -0.850196
0.227449 0.0664398 -0.850281
0.230266 0.0666481 -0.850842
0.232833 0.066868 -0.852257
0.235155 0.0671954 -0.853973
0.237082 0.0674397 -0.856192
0.238842 0.0678436 -0.858874
0.240411 0.0681899 -0.861732
0.241939 0.0682293 -0.864205
0.243815 0.0689675 -0.8672
0.245885 0.0692206 -0.869244
0.248035 0.0692253 -0.870987
0.250357 0.0695761 -0.872819
0.252616 0.0701215 -0.875106
0.254183 0.0700424 -0.877128
0.255875 0.0705838 -0.880484
0.257103 0.0710102 -0.884181
0.258225 0.0714156 -0.887939
0.259384 0.0718288 -0.891697
0.26053 0.0722512 -0.895475
0.261913 0.0726544 -0.899186
0.263394 0.072986 -0.902835
0.265048 0.073343 -0.905794
0.266757 0.0737115 -0.908737
0.268495 0.0740904 -0.911684
0.270429 0.0743011 -0.914489
0.272831 0.0744856 -0.916382
0.275443 0.0748449 -0.917704
0.278667 0.0748974 -0.91778
0.283456 0.0754039 -0.916394
0.286651 0.0753845 -0.916166
-0.00837055 0.0554668 -0.881859
-0.00574053 0.0559124 -0.883085
-0.00276566 0.056166 -0.884507
0.00027316 0.0564208 -0.885738
0.00392637 0.0565589 -0.886697
0.00771309 0.0568376 -0.886891
0.0114696 0.0570853 -0.887171
0.0158772 0.057145 -0.887592
0.0190052 0.0575758 -0.887803
0.0233108 0.0576281 -0.888384
0.0264073 0.0579171 -0.889432
0.0291846 0.0581436 -0.891038
0.0314112 0.0585266 -0.893233
0.0333433 0.0588018 -0.895697
0.0348721 0.0591645 -0.89862
0.0361079 0.0594684 -0.90216
0.0373154 0.059748 -0.905762
0.0385831 0.0602633 -0.908783
0.0399194 0.0605173 -0.912342
0.0413344 0.0609855 -0.915344
0.0431231 0.0613127 -0.918195
0.0449813 0.0616201 -0.920955
0.0472365 0.0619742 -0.923204
0.0497912 0.0621699 -0.925032
0.0532743 0.0626455 -0.926166
0.0570995 0.0627144 -0.926337
0.0621839 0.0630062 -0.925453
0.0671832 0.0630056 -0.92416
0.0728523 0.0630966 -0.922238
0.0791321 0.0631142 -0.919465
0.0847285 0.0631589 -0.917462
0.0910526 0.0633539 -0.914955
0.0965586 0.0633294 -0.912823
0.101418 0.0633548 -0.91148
0.106333 0.0635409 -0.910448
0.110556 0.0636522 -0.909961
0.114785 0.0638156 -0.909592
0.118995 0.0639495 -0.909155
0.123206 0.0641403 -0.908851
0.127407 0.0643685 -0.908632
0.131591 0.0645826 -0.908372
0.135109 0.0645533 -0.908277
0.139947 0.0649049 -0.907535
0.144669 0.0649111 -0.906103
0.149329 0.0648579 -0.90463
0.155302 0.064984 -0.901898
0.161866 0.0650591 -0.898294
0.216999 0.0633421 -0.855236
0.222613 0.0633037 -0.852107
0.227071 0.0636118 -0.851137
0.230259 0.0638039 -0.851555
0.233039 0.063959 -0.852387
0.235483 0.0642183 -0.853859
0.237599 0.0644831 -0.855791
0.239448 0.0648244 -0.858333
0.241081 0.0650178 -0.860716
0.242885 0.0655859 -0.863813
0.244488 0.0657078 -0.86625
0.246529 0.0661833 -0.868702
0.248645 0.0664483 -0.870737
0.250756 0.0665276 -0.872469
0.253066 0.0670166 -0.874716
0.254821 0.067226 -0.877052
0.256321 0.0676763 -0.880592
0.257403 0.0680549 -0.88438
0.258303 0.0684441 -0.8882
0.259335 0.0688895 -0.892718
0.260227 0.0693159 -0.89656
0.261238 0.069778 -0.900389
0.262349 0.0701258 -0.904928
0.263525 0.0705624 -0.908734
0.265099 0.0710995 -0.911744
0.266669 0.0712266 -0.915412
0.268704 0.0718925 -0.917652
0.270776 0.0718512 -0.920387
0.273561 0.0721374 -0.921601
0.276838 0.0723405 -0.92193
-0.00801953 0.0522797 -0.881647
-0.00504487 0.0525482 -0.883067
-0.00202141 0.0528089 -0.884381
0.00109331 0.053052 -0.885461
0.00479888 0.0532864 -0.88626
0.00859821 0.0534922 -0.886384
0.0129977 0.0537082 -0.886839
0.016107 0.0539251 -0.887085
0.020482 0.0541278 -0.887365
0.0241827 0.0543467 -0.887826
0.0272656 0.0545996 -0.888942
0.0298126 0.0549291 -0.890751
0.0316784 0.0552267 -0.893257
0.0332651 0.0555759 -0.896109
0.0344325 0.0559012 -0.899633
0.0352301 0.0563548 -0.903342
0.036229 0.0567325 -0.907011
0.0375246 0.0569575 -0.910592
0.0389085 0.0574642 -0.913622
0.0405965 0.0578078 -0.91656
0.0426495 0.0579952 -0.919231
0.0447068 0.0584415 -0.921635
0.0469776 0.0588307 -0.923983
0.0496083 0.0590501 -0.925902
0.0523221 0.0591401 -0.927462
0.055918 0.0595507 -0.928412
0.0603596 0.0597959 -0.928189
0.0647236 0.0597979 -0.927581
0.0696826 0.0598216 -0.926299
0.0767127 0.0599919 -0.922978
0.0829603 0.0600092 -0.920165
0.0884893 0.0599927 -0.918019
0.0947686 0.0601375 -0.915406
0.100348 0.060274 -0.91352
0.105203 0.0603287 -0.91219
0.110116 0.0605485 -0.911261
0.114333 0.060685 -0.910804
0.118557 0.0608674 -0.910504
0.122776 0.0610687 -0.910277
0.126307 0.0611043 -0.910083
0.130503 0.0613081 -0.909833
0.134691 0.0615561 -0.909716
0.13819 0.0615802 -0.909571
0.142939 0.0617337 -0.908526
0.148417 0.0620092 -0.906961
0.153072 0.0620356 -0.905506
0.158966 0.0620499 -0.902573
0.164772 0.0619743 -0.899509
0.218808 0.0609022 -0.858539
0.22432 0.0606535 -0.855259
0.228844 0.0606923 -0.853652
0.232569 0.0611401 -0.853581
0.235234 0.0613603 -0.85472
0.237614 0.0616749 -0.856219
0.239722 0.061864 -0.858424
0.241527 0.0621878 -0.860732
0.243395 0.0625281 -0.863339
0.245121 0.0627532 -0.865689
0.24706 0.0631366 -0.868248
0.249338 0.0635634 -0.870472
0.251281 0.0636839 -0.872349
0.253371 0.0639612 -0.874417
0.255291 0.0643119 -0.8771
0.256512 0.0646337 -0.880175
0.257492 0.0650774 -0.884646
0.258298 0.0655033 -0.889224
0.259044 0.0659205 -0.893835
0.259904 0.066302 -0.89845
0.260557 0.0667283 -0.903094
0.261103 0.0671922 -0.90777
0.262042 0.0674769 -0.912382
0.263302 0.0682164 -0.915424
0.264736 0.0684931 -0.91919
0.266462 0.0689812 -0.922196
0.268819 0.0692499 -0.924258
0.271633 0.0695393 -0.925489
0.275014 0.0695895 -0.925733
-0.00845896 0.048905 -0.882316
-0.00542681 0.0491891 -0.883696
-0.00204638 0.0497782 -0.885092
0.000653571 0.0496414 -0.886105
0.0043139 0.0499336 -0.88684
0.00872876 0.0503024 -0.886974
0.0124936 0.0504481 -0.887289
0.0162486 0.0506183 -0.88763
0.0206048 0.0509523 -0.887756
0.0238431 0.0509308 -0.888265
0.0271622 0.051499 -0.889555
0.0295013 0.0514057 -0.891664
0.03128 0.0519786 -0.894208
0.0324022 0.0522457 -0.897778
0.0331564 0.0527188 -0.901496
0.0338646 0.0528729 -0.905853
0.0349691 0.053543 -0.908887
0.0363001 0.0537169 -0.912456
0.0379062 0.0541126 -0.915394
0.0399179 0.0542806 -0.918073
0.0419762 0.0547722 -0.920442
0.0442222 0.0551423 -0.922733
0.0466308 0.0551942 -0.924863
0.0491518 0.0556888 -0.92692
0.0517755 0.0559111 -0.928671
0.0548795 0.0561676 -0.929864
0.0585523 0.0564165 -0.930579
0.0629281 0.0565839 -0.930224
0.0686554 0.0567603 -0.928496
0.074941 0.0568002 -0.925683
0.0811573 0.0568221 -0.922789
0.0882153 0.0569836 -0.919605
0.0929798 0.0569511 -0.918002
0.0992736 0.0571379 -0.9155
0.104073 0.0571571 -0.914019
0.109671 0.0573575 -0.912398
0.113854 0.0574685 -0.911744
0.118067 0.0576333 -0.911299
0.122279 0.0578131 -0.910924
0.126482 0.0579897 -0.910595
0.130672 0.0581608 -0.910261
0.134866 0.0583284 -0.91018
0.138377 0.0585339 -0.910117
0.143207 0.058677 -0.909328
0.147942 0.0588044 -0.908016
0.151932 0.05888 -0.907091
0.157991 0.0590326 -0.904623
0.162457 0.058927 -0.902819
0.169664 0.0590903 -0.898667
0.225501 0.0583039 -0.859368
0.230504 0.0581304 -0.856924
0.234319 0.0584681 -0.85652
0.237118 0.0586374 -0.857525
0.239527 0.0588057 -0.859207
0.241498 0.0593132 -0.86115
0.243733 0.0595426 -0.863393
0.245627 0.0598601 -0.865618
0.247441 0.0601529 -0.867916
0.249454 0.0604347 -0.870043
0.251707 0.0607346 -0.872367
0.253392 0.0610456 -0.874269
0.255436 0.0613413 -0.877356
0.256676 0.0617032 -0.881088
0.257429 0.0621277 -0.884935
0.258079 0.0625641 -0.889535
0.258706 0.0630053 -0.89416
0.259334 0.0634641 -0.89879
0.259733 0.0639065 -0.904274
0.260107 0.0645122 -0.908941
0.26064 0.0648944 -0.914464
0.261416 0.0653721 -0.919158
0.26273 0.0657877 -0.92301
0.264711 0.0659922 -0.925867
0.267145 0.0661655 -0.927832
0.269887 0.0665291 -0.929148
-0.00919668 0.0458605 -0.883848
-0.00618799 0.0461523 -0.885212
-0.00364287 0.0460372 -0.886727
-0.00010959 0.0466845 -0.887805
0.00303603 0.0467219 -0.888779
0.00746372 0.0471177 -0.888793
0.0112395 0.0471678 -0.889019
0.0149955 0.047292 -0.889387
0.0194286 0.0476133 -0.889266
0.0231754 0.0478255 -0.889736
0.0261317 0.0481643 -0.891136
0.028324 0.0485676 -0.8933
0.0296309 0.048603 -0.896709
0.0305356 0.0489888 -0.900422
0.0312745 0.049512 -0.904134
0.0322247 0.0498909 -0.907817
0.033418 0.0501135 -0.911424
0.0349732 0.0505418 -0.914381
0.0367797 0.0508062 -0.917215
0.0388551 0.0513039 -0.919606
0.0411528 0.051629 -0.921909
0.0435559 0.0516463 -0.923975
0.0462681 0.0520446 -0.925834
0.048978 0.0523328 -0.927426
0.0519596 0.0526326 -0.928872
0.0550459 0.0529079 -0.930134
0.0587146 0.0530729 -0.930978
0.0624209 0.0533368 -0.93105
0.0681474 0.0534283 -0.929503
0.074489 0.053514 -0.926846
0.0807149 0.053589 -0.923947
0.0869187 0.0536374 -0.921036
0.0926062 0.0538201 -0.919377
0.0981223 0.0538997 -0.917267
0.103632 0.0539947 -0.915213
0.109146 0.0541048 -0.913195
0.114052 0.054278 -0.912257
0.118208 0.0544266 -0.911496
0.123087 0.0545651 -0.910569
0.127263 0.0547529 -0.910066
0.131445 0.0549297 -0.909663
0.135632 0.0550631 -0.909456
0.139139 0.0553547 -0.909477
0.14325 0.0555798 -0.908864
0.14805 0.0556166 -0.908033
0.15212 0.0557963 -0.907365
0.157495 0.0558743 -0.905603
0.162798 0.0560004 -0.903592
0.167446 0.0561236 -0.902272
0.172636 0.0561033 -0.899979
0.178451 0.0561764 -0.897073
0.226652 0.0557172 -0.863281
0.232189 0.0556665 -0.860127
0.236001 0.0559355 -0.859679
0.238967 0.0564306 -0.860405
0.241307 0.0564545 -0.86206
0.243535 0.0566645 -0.86394
0.24568 0.0569402 -0.865937
0.24759 0.0572695 -0.868154
0.24968 0.0574891 -0.870595
0.251644 0.0578055 -0.872775
0.253425 0.0581692 -0.875035
0.255159 0.0584701 -0.877804
0.256344 0.0588225 -0.881475
0.257105 0.0592109 -0.886026
0.257807 0.059617 -0.890628
0.258478 0.060037 -0.895249
0.258776 0.0605643 -0.899898
0.258976 0.0609399 -0.90625
0.259192 0.0614134 -0.911774
0.259268 0.0617629 -0.91812
0.26009 0.0624144 -0.92202
0.261763 0.0625641 -0.925623
0.263917 0.0629822 -0.927821
0.266406 0.0635447 -0.929387
0.269134 0.0634637 -0.931033
-0.0081423 0.0428182 -0.887624
-0.0051248 0.0431268 -0.888972
-0.00206814 0.0433802 -0.890254
0.00100984 0.0435864 -0.891486
0.00476118 0.0438964 -0.892078
0.00854276 0.0440004 -0.892452
0.0129937 0.0443636 -0.892338
0.0174338 0.0445712 -0.892055
0.0211965 0.0446717 -0.892429
0.0242101 0.0449569 -0.893732
0.0259383 0.0451303 -0.896515
0.0273226 0.0457331 -0.899501
0.0283395 0.0460019 -0.903127
0.0292915 0.0463604 -0.906806
0.0304719 0.0465579 -0.910419
0.0320152 0.0469907 -0.913377
0.0337692 0.0472749 -0.916255
0.0356877 0.0474653 -0.918978
0.0379468 0.0478539 -0.921218
0.0405314 0.0480715 -0.923054
0.0434859 0.0484059 -0.924541
0.0465854 0.0486881 -0.925819
0.0502152 0.048825 -0.926704
0.0539788 0.0489486 -0.927315
0.0571199 0.0494342 -0.928224
0.0608493 0.0495598 -0.928889
0.0645717 0.049936 -0.929136
0.0695775 0.0500847 -0.92801
0.0752797 0.0501548 -0.926246
0.081602 0.0502492 -0.923603
0.0871288 0.0503851 -0.921431
0.0920964 0.0505499 -0.920349
0.0976346 0.0506644 -0.918303
0.103863 0.0507702 -0.915647
0.109308 0.0508723 -0.913463
0.114178 0.0510312 -0.912298
0.119698 0.0511107 -0.910532
0.124505 0.0512407 -0.909313
0.128665 0.0514692 -0.908735
0.132839 0.0516539 -0.908322
0.137007 0.0518145 -0.907969
0.141169 0.0519583 -0.907663
0.145309 0.052143 -0.907246
0.149466 0.0522841 -0.907087
0.152904 0.0526065 -0.906848
0.157585 0.0527187 -0.905519
0.162963 0.0528808 -0.904118
0.166346 0.0528833 -0.903686
0.171074 0.0532268 -0.902924
0.175705 0.0533467 -0.901603
0.180328 0.0534952 -0.900306
0.185495 0.053531 -0.89811
0.228427 0.0532121 -0.866445
0.233346 0.0528382 -0.863866
0.237697 0.0533804 -0.862816
0.240488 0.0534694 -0.863797
0.243046 0.0538617 -0.865137
0.245215 0.0540987 -0.867095
0.247358 0.0543697 -0.8691
0.249375 0.0544653 -0.871627
0.25124 0.0549064 -0.873886
0.253129 0.0551069 -0.87662
0.254677 0.055477 -0.879573
0.255692 0.055892 -0.883366
0.25656 0.0562152 -0.887937
0.257253 0.0567385 -0.891758
0.257885 0.0570324 -0.897206
0.257925 0.0575307 -0.90272
0.257879 0.0580905 -0.90823
0.257965 0.0586335 -0.913767
0.258168 0.0591306 -0.919374
0.259315 0.0593792 -0.923989
0.261284 0.0596359 -0.926838
0.263475 0.0600096 -0.929039
0.266058 0.0604093 -0.930538
-0.00987011 0.0392386 -0.889763
-0.00698078 0.0396848 -0.891308
-0.0040435 0.0400887 -0.892803
-0.00101982 0.040399 -0.894182
0.0020814 0.0405901 -0.895364
0.005842 0.040863 -0.895936
0.00962363 0.0409806 -0.896257
0.0141015 0.0412172 -0.89605
0.0178349 0.041512 -0.896626
0.0206044 0.04213 -0.898169
0.0225737 0.0420234 -0.900747
0.0243906 0.0422071 -0.903551
0.0258457 0.0426995 -0.906532
0.0271538 0.0432613 -0.90956
0.0287217 0.0432233 -0.912975
0.0306268 0.0438211 -0.915374
0.0326741 0.0439243 -0.918039
0.0349109 0.0443124 -0.920318
0.0374255 0.0445414 -0.92231
0.040502 0.0448091 -0.923657
0.0442144 0.0450269 -0.924367
0.0480243 0.045256 -0.924692
0.0524404 0.0454169 -0.924451
0.0568434 0.0456285 -0.924111
0.060574 0.04591 -0.924531
0.064297 0.0460715 -0.925127
0.0680228 0.0463429 -0.925577
0.0717017 0.0467215 -0.925791
0.0767111 0.0468116 -0.924797
0.082334 0.0469426 -0.922845
0.0880084 0.0470635 -0.9212
0.0921953 0.0472751 -0.92035
0.0978175 0.0474076 -0.918619
0.103967 0.0475098 -0.915767
0.110208 0.0476115 -0.913208
0.114905 0.0477962 -0.911585
0.121044 0.0478879 -0.908881
0.125887 0.0480107 -0.90778
0.13005 0.048233 -0.907282
0.134197 0.0484932 -0.906693
0.139021 0.0484388 -0.905991
0.14252 0.0488218 -0.90597
0.146667 0.0489148 -0.905826
0.150164 0.0492284 -0.905878
0.1543 0.0493489 -0.905706
0.158381 0.0495391 -0.905075
0.16309 0.0497551 -0.904431
0.166004 0.0497545 -0.904486
0.170043 0.0500904 -0.904717
0.174103 0.0503342 -0.904388
0.178166 0.0505955 -0.904013
0.181534 0.0504239 -0.903935
0.187407 0.0508762 -0.901387
0.230128 0.0503691 -0.869398
0.235649 0.0506762 -0.866483
0.238912 0.0507535 -0.8667
0.241755 0.0507754 -0.867651
0.244312 0.0512229 -0.869003
0.246495 0.05147 -0.870982
0.248532 0.0518446 -0.873091
0.250374 0.0519833 -0.875803
0.252167 0.0525417 -0.878028
0.25366 0.0526353 -0.88158
0.25467 0.0530674 -0.885355
0.255526 0.0533452 -0.889932
0.25625 0.0539048 -0.893729
0.256486 0.0543153 -0.899198
0.256298 0.0547332 -0.905563
0.25627 0.0550742 -0.911956
0.256381 0.0555935 -0.917481
0.257271 0.0559429 -0.922115
0.258893 0.0563859 -0.925163
0.260955 0.0565853 -0.92794
0.263454 0.0567983 -0.929818
0.265963 0.0572143 -0.9314
-0.0101097 0.0363498 -0.890661
-0.00767492 0.0365415 -0.892584
-0.00480164 0.0369673 -0.894293
-0.00216696 0.0369872 -0.89571
0.000930416 0.0371841 -0.896798
0.0046194 0.0375146 -0.897562
0.00841212 0.0376704 -0.897843
0.0128319 0.0380217 -0.897963
0.0161713 0.0380425 -0.898735
0.0191512 0.0384621 -0.900285
0.0214508 0.038714 -0.902499
0.0231296 0.0390265 -0.905405
0.024471 0.0392191 -0.90895
0.0258603 0.0396521 -0.911938
0.0276985 0.0398877 -0.914701
0.0297546 0.0403281 -0.917015
0.0319687 0.0407041 -0.919304
0.0344106 0.040967 -0.921412
0.0371025 0.0411282 -0.923002
0.040686 0.0414521 -0.923902
0.0450969 0.0416392 -0.923956
0.0495459 0.0418508 -0.923427
0.0546199 0.0420123 -0.922346
0.0590031 0.042197 -0.922089
0.0627162 0.0425084 -0.922397
0.0664293 0.0427272 -0.922914
0.0701414 0.04297 -0.92339
0.0738139 0.0433191 -0.923618
0.0788182 0.0434251 -0.922634
0.0837531 0.0436421 -0.921285
0.0887839 0.0437422 -0.920552
0.0930393 0.0439726 -0.919963
0.0986667 0.0441139 -0.918204
0.104791 0.0442362 -0.915281
0.110959 0.0443462 -0.912537
0.117094 0.0444332 -0.909779
0.122449 0.0446269 -0.907492
0.127309 0.0447242 -0.906521
0.131438 0.0449947 -0.905859
0.136255 0.0450615 -0.904969
0.139746 0.0454336 -0.904826
0.143909 0.045514 -0.904837
0.147424 0.045835 -0.90479
0.151547 0.0459357 -0.904802
0.155053 0.0461889 -0.904904
0.159152 0.046359 -0.904748
0.163177 0.0466299 -0.904811
0.166142 0.046768 -0.905371
0.169592 0.0470769 -0.906046
0.17308 0.0472877 -0.9064
0.176555 0.0474133 -0.906578
0.180601 0.047627 -0.906182
0.184574 0.0476832 -0.905514
0.190394 0.0479198 -0.902775
0.232474 0.0478272 -0.871742
0.236837 0.0481554 -0.870457
0.239607 0.0480228 -0.871405
0.242365 0.048228 -0.872545
0.244942 0.0487639 -0.873858
0.247159 0.0489462 -0.875821
0.249071 0.048917 -0.878542
0.250907 0.0496102 -0.880731
0.252151 0.0498253 -0.884423
0.252839 0.0501474 -0.889017
0.253834 0.0506441 -0.892789
0.253612 0.0509769 -0.899131
0.253478 0.0518571 -0.911012
0.253931 0.0524901 -0.9157
0.254641 0.0525656 -0.921144
0.256372 0.052958 -0.924107
0.25834 0.053486 -0.92643
0.260648 0.0537647 -0.928601
0.263163 0.0539358 -0.93055
-0.00745213 0.0331924 -0.892745
-0.00492946 0.0335055 -0.894451
-0.00199898 0.0337476 -0.895954
0.00159064 0.0339351 -0.897112
0.0053973 0.0341591 -0.897649
0.00919151 0.0344132 -0.898049
0.0129545 0.0346941 -0.898392
0.0164245 0.0349335 -0.899399
0.0189641 0.0352415 -0.900982
0.0211015 0.0355457 -0.903177
0.0227122 0.035844 -0.906003
0.0240456 0.0361325 -0.909473
0.0252919 0.0365082 -0.912597
0.0271346 0.036794 -0.91545
0.0291996 0.0370261 -0.918115
0.0315508 0.037324 -0.920272
0.0341021 0.0375583 -0.922186
0.0371246 0.0378409 -0.92356
0.0408696 0.0380897 -0.924078
0.0452893 0.0382991 -0.923547
0.0496518 0.0385211 -0.92307
0.0554197 0.0387299 -0.921488
0.0598321 0.0389306 -0.921448
0.0635428 0.0392227 -0.921571
0.0679061 0.0393342 -0.921802
0.0716093 0.0396451 -0.921958
0.0759726 0.0398102 -0.921793
0.0809834 0.0399758 -0.920811
0.085266 0.0402391 -0.920261
0.0895825 0.0404474 -0.920002
0.0938519 0.0406738 -0.919462
0.0993937 0.0408351 -0.917468
0.105583 0.0409672 -0.914721
0.111707 0.0411006 -0.911881
0.117703 0.0412613 -0.908807
0.123932 0.0413206 -0.906397
0.128012 0.041605 -0.90557
0.132864 0.0417097 -0.904682
0.137 0.0419388 -0.904124
0.141153 0.0420709 -0.904139
0.144672 0.0423514 -0.904169
0.148786 0.0425001 -0.904172
0.152296 0.0427519 -0.904388
0.155804 0.0429898 -0.904669
0.159307 0.0432132 -0.904959
0.162783 0.0434467 -0.905438
0.166208 0.0437185 -0.906124
0.169181 0.043901 -0.906955
0.172128 0.04403 -0.907747
0.175564 0.0442133 -0.9081
0.180215 0.0446106 -0.907543
0.184192 0.0446872 -0.90673
0.188734 0.0448045 -0.905296
0.194491 0.0449457 -0.902429
0.228742 0.045051 -0.877917
0.23314 0.0452635 -0.876563
0.236428 0.0454231 -0.87685
0.239191 0.0455325 -0.87796
0.241947 0.04574 -0.879124
0.244606 0.0461832 -0.880344
0.24673 0.0465734 -0.882384
0.247579 0.0464805 -0.886917
0.249938 0.0491212 -0.91733
0.25117 0.0495155 -0.921181
0.253067 0.0497539 -0.924086
0.2554 0.0500313 -0.926174
0.257799 0.0502624 -0.928205
0.260266 0.0504599 -0.93016
-0.000633909 0.0302542 -0.895412
0.00260152 0.0306909 -0.896073
0.00637383 0.0310003 -0.896427
0.0102052 0.031319 -0.896774
0.0139992 0.031548 -0.897367
0.0170583 0.031737 -0.898802
0.0196065 0.0320714 -0.900664
0.021747 0.03224 -0.903077
0.0232169 0.032478 -0.906089
0.0244553 0.0328378 -0.909636
0.025737 0.0331942 -0.913155
0.0272242 0.033436 -0.916117
0.0289967 0.0336592 -0.918731
0.0313874 0.0339735 -0.920956
0.0340182 0.0342416 -0.922872
0.0371549 0.0345163 -0.924246
0.0415825 0.034825 -0.924512
0.0461568 0.0351069 -0.924073
0.0506027 0.0353041 -0.923522
0.0556467 0.035476 -0.922269
0.0600311 0.0356843 -0.922228
0.0637045 0.0358432 -0.921861
0.0687594 0.0360338 -0.921488
0.0724132 0.0363334 -0.921283
0.0767506 0.0365612 -0.920949
0.0817829 0.0366864 -0.920264
0.0861053 0.0368963 -0.92
0.0896965 0.0372319 -0.91979
0.0947116 0.0373487 -0.919178
0.100243 0.0375455 -0.917036
0.106338 0.0377144 -0.914082
0.112513 0.0378504 -0.911356
0.119253 0.0379673 -0.907748
0.12474 0.038094 -0.905931
0.128793 0.0383845 -0.905007
0.133636 0.0385209 -0.904096
0.137785 0.038706 -0.903855
0.141306 0.0389619 -0.904048
0.144835 0.0392274 -0.904068
0.14895 0.0393826 -0.904137
0.152468 0.0396222 -0.904359
0.155962 0.0398414 -0.904865
0.159442 0.0400689 -0.905357
0.162447 0.0402828 -0.905978
0.165875 0.0405308 -0.906741
0.168877 0.0407217 -0.907524
0.172213 0.041022 -0.908574
0.175712 0.0412348 -0.908869
0.179754 0.0414191 -0.908329
0.184416 0.0416288 -0.907246
0.188964 0.0417613 -0.905757
0.194073 0.041887 -0.903519
0.19971 0.0419816 -0.900432
0.2072 0.0420804 -0.895097
0.213897 0.0421189 -0.890303
0.219463 0.0422049 -0.887212
0.225566 0.0422666 -0.883278
0.229983 0.0424273 -0.881898
0.233309 0.0425111 -0.882164
0.236528 0.0431019 -0.882628
0.238294 0.0429847 -0.885362
0.239926 0.0434144 -0.88828
0.254071 0.0470074 -0.929007
0.00116867 0.0272223 -0.893328
0.00626904 0.0268768 -0.893271
0.00937496 0.0275571 -0.893826
0.0129934 0.0276383 -0.894709
0.0159871 0.0279184 -0.895957
0.0184652 0.0283062 -0.89776
0.0205872 0.0284874 -0.900053
0.0225336 0.0288986 -0.902623
0.024091 0.0291411 -0.905567
0.0252393 0.0295087 -0.909151
0.0263964 0.0295601 -0.912298
0.0277895 0.0300341 -0.915792
0.0295341 0.0303395 -0.918666
0.0316402 0.0307903 -0.921107
0.0342853 0.030857 -0.922984
0.0370368 0.0313651 -0.92428
0.0406044 0.0314798 -0.925094
0.0449458 0.0316193 -0.925455
0.0486947 0.0319047 -0.925579
0.0537707 0.0321101 -0.924535
0.0588489 0.0323457 -0.92363
0.0631611 0.0325183 -0.922716
0.0682353 0.0327784 -0.922008
0.0732836 0.0329442 -0.921197
0.0775969 0.0332001 -0.920668
0.0818968 0.0334824 -0.920098
0.08621 0.0337117 -0.919746
0.0905122 0.0339322 -0.919433
0.0947291 0.0342273 -0.918827
0.100996 0.0342933 -0.916384
0.107881 0.0343743 -0.912973
0.113226 0.034649 -0.91064
0.119995 0.0347642 -0.907076
0.124752 0.0350112 -0.905617
0.129579 0.0351883 -0.904446
0.134423 0.0353059 -0.903654
0.137932 0.0356053 -0.903631
0.141474 0.0358451 -0.903922
0.145589 0.0359863 -0.904102
0.149119 0.0362492 -0.904156
0.152641 0.0364909 -0.904399
0.156171 0.0367229 -0.904758
0.159615 0.036918 -0.905505
0.162625 0.0371742 -0.906252
0.166014 0.0373954 -0.907075
0.1694 0.0376164 -0.907874
0.172377 0.0378684 -0.908789
0.17587 0.0380942 -0.909135
0.179907 0.0382906 -0.908545
0.184526 0.0384728 -0.907311
0.189147 0.0386602 -0.906087
0.194281 0.0388097 -0.903883
0.199963 0.0389368 -0.900853
0.205443 0.0389609 -0.897506
0.211674 0.0390352 -0.893666
0.217343 0.0391958 -0.890733
0.222369 0.039256 -0.888488
0.227355 0.0397589 -0.886517
0.230194 0.0395547 -0.887475
0.232881 0.0401394 -0.888782
0.234115 0.0402115 -0.892465
0.234647 0.0407233 -0.897097
0.0110103 0.0242838 -0.892409
0.0143929 0.0242744 -0.893684
0.0170058 0.0247329 -0.895178
0.0194365 0.0250477 -0.897113
0.021555 0.0252214 -0.899421
0.0235637 0.0253101 -0.901801
0.0252608 0.025979 -0.904828
0.0267026 0.0261396 -0.907876
0.02824 0.026305 -0.910842
0.0295471 0.0268563 -0.914334
0.031105 0.0270114 -0.917318
0.0332988 0.0270518 -0.919657
0.0357032 0.0273082 -0.921848
0.0387718 0.0274357 -0.923388
0.0414065 0.0281319 -0.924812
0.0451197 0.0282364 -0.925698
0.0481928 0.0287044 -0.926104
0.0532682 0.0287967 -0.925547
0.0582891 0.0291122 -0.924165
0.0634048 0.0292272 -0.923549
0.0683362 0.0295299 -0.922033
0.0740619 0.0296889 -0.920358
0.0783525 0.0300664 -0.919647
0.0833791 0.0301102 -0.91895
0.0876712 0.030389 -0.918499
0.0926703 0.0304566 -0.917627
0.0975497 0.0307731 -0.916255
0.103022 0.0310552 -0.914102
0.109172 0.0312193 -0.911296
0.115311 0.0313699 -0.90852
0.121454 0.0314915 -0.905851
0.126221 0.0317393 -0.904487
0.131049 0.031888 -0.903466
0.135186 0.0321162 -0.903017
0.138709 0.0324272 -0.903127
0.142242 0.032653 -0.903557
0.145772 0.0329308 -0.903752
0.149872 0.0330371 -0.903829
0.153399 0.0333291 -0.90391
0.156915 0.0335612 -0.904285
0.160334 0.033723 -0.905087
0.163324 0.0340361 -0.905917
0.166657 0.0341748 -0.906903
0.169658 0.0344821 -0.907716
0.172617 0.034771 -0.908489
0.17604 0.0349948 -0.908887
0.18069 0.0351336 -0.908308
0.184629 0.0353523 -0.907312
0.189267 0.0355389 -0.90623
0.194425 0.035708 -0.904111
0.20019 0.0358877 -0.90126
0.205868 0.0360594 -0.898244
0.211466 0.03621 -0.895173
0.216442 0.0363228 -0.892856
0.220873 0.0363649 -0.891313
0.224786 0.0366036 -0.890862
0.22754 0.0369286 -0.892108
0.229393 0.0369759 -0.894889
0.230489 0.0374025 -0.898706
0.230495 0.0378411 -0.904198
0.229546 0.0382307 -0.911399
0.0144757 0.0213483 -0.893581
0.0172945 0.0214943 -0.895264
0.019893 0.0215565 -0.897132
0.0221531 0.0221276 -0.899223
0.0242968 0.0223018 -0.901537
0.0263891 0.0223758 -0.903873
0.0284381 0.023007 -0.906387
0.0306419 0.023118 -0.908623
0.0328416 0.0231419 -0.910875
0.0345784 0.0234607 -0.913727
0.0363638 0.0238916 -0.916531
0.0387641 0.0241867 -0.918614
0.0417962 0.024271 -0.920042
0.0455362 0.0243172 -0.920716
0.0486356 0.0247542 -0.9219
0.0523972 0.0249264 -0.922524
0.0561148 0.0253794 -0.922804
0.0605325 0.025569 -0.922688
0.0648627 0.0259211 -0.922091
0.0712007 0.0261108 -0.919391
0.0769149 0.0261345 -0.917805
0.0811781 0.0265341 -0.917158
0.085452 0.0268926 -0.91663
0.0904185 0.0270419 -0.91558
0.095331 0.027297 -0.914369
0.100897 0.0274641 -0.912438
0.106456 0.0276187 -0.910526
0.111908 0.0278945 -0.908408
0.11808 0.0279949 -0.905766
0.122808 0.0283376 -0.904281
0.12759 0.0285913 -0.902946
0.132449 0.0286517 -0.90214
0.135935 0.0290904 -0.90196
0.140092 0.0291367 -0.902074
0.143613 0.0294136 -0.902358
0.147131 0.029666 -0.902712
0.150665 0.029976 -0.902807
0.154705 0.0300525 -0.902979
0.158147 0.0302454 -0.903556
0.16112 0.0305898 -0.904356
0.164096 0.0309067 -0.905251
0.167038 0.0312033 -0.906271
0.170419 0.031343 -0.907068
0.173806 0.0314639 -0.908015
0.17678 0.0318639 -0.908426
0.18144 0.0319506 -0.90794
0.18546 0.0322133 -0.907207
0.189379 0.0324229 -0.906303
0.194599 0.0326168 -0.904415
0.199692 0.0327854 -0.902173
0.204747 0.0329343 -0.899906
0.210436 0.0331309 -0.896991
0.215476 0.033306 -0.894793
0.219928 0.0334894 -0.893416
0.2237 0.0339195 -0.893219
0.226137 0.0338832 -0.894836
0.22784 0.0341585 -0.897737
0.228432 0.03451 -0.902396
0.22859 0.0348386 -0.907878
0.227772 0.0352421 -0.915098
0.223979 0.0364027 -0.938542
0.223313 0.0368403 -0.945821
0.0121099 0.0177072 -0.892108
0.0152263 0.0180065 -0.893294
0.0180653 0.0181582 -0.894894
0.0205112 0.0184978 -0.89679
0.0229867 0.0188686 -0.898684
0.0253693 0.0191901 -0.900722
0.0281079 0.0191925 -0.902412
0.0305806 0.019593 -0.904327
0.0333508 0.0194876 -0.906017
0.0358138 0.0198681 -0.907964
0.0382606 0.020314 -0.909891
0.0406793 0.0207678 -0.911856
0.0443246 0.0206842 -0.912582
0.0473907 0.0210427 -0.913815
0.0504352 0.0212687 -0.915128
0.0534579 0.0213761 -0.916513
0.0558876 0.0219178 -0.918426
0.0595915 0.0220626 -0.919004
0.0639612 0.0223269 -0.918668
0.0689838 0.0225485 -0.917564
0.0739512 0.0228765 -0.916289
0.0789256 0.0231278 -0.915129
0.083922 0.0232766 -0.914108
0.0888721 0.0234972 -0.912965
0.0937938 0.0237502 -0.911773
0.0993945 0.0238521 -0.909939
0.103526 0.0243598 -0.909214
0.109062 0.0245072 -0.907303
0.114544 0.0247327 -0.905252
0.119319 0.025049 -0.90386
0.124861 0.0250988 -0.902141
0.129702 0.0251983 -0.901232
0.133146 0.0257251 -0.900902
0.137971 0.0256411 -0.90046
0.14148 0.0260299 -0.900476
0.145003 0.0262929 -0.900812
0.148494 0.0264749 -0.901375
0.151978 0.0266756 -0.901923
0.155461 0.0269119 -0.902367
0.158479 0.0273039 -0.902923
0.161862 0.0274287 -0.903831
0.165231 0.0275482 -0.904712
0.168222 0.0278974 -0.905488
0.171205 0.0282437 -0.906305
0.174581 0.0283558 -0.907197
0.177541 0.0287693 -0.907575
0.181537 0.0288973 -0.907571
0.185565 0.0291042 -0.907185
0.190219 0.0293137 -0.90617
0.194751 0.0295203 -0.904668
0.199224 0.0296803 -0.903102
0.204399 0.0299156 -0.901135
0.209351 0.0300187 -0.898667
0.214419 0.0301732 -0.89641
0.218988 0.030358 -0.895014
0.222812 0.0308133 -0.895138
0.225364 0.0308167 -0.896633
0.226884 0.0311854 -0.899723
0.227705 0.0314757 -0.90431
0.22813 0.0318028 -0.908988
0.227791 0.0321464 -0.915342
0.227 0.032549 -0.922583
0.225628 0.0329493 -0.930682
0.2249 0.033364 -0.937938
0.224332 0.0335006 -0.944362
0.224758 0.0339031 -0.949931
0.0140834 0.0142269 -0.890769
0.0167636 0.0146846 -0.891995
0.0221805 0.0152493 -0.895324
0.0248994 0.015329 -0.897093
0.0274043 0.0156889 -0.898912
0.0301367 0.0157334 -0.900622
0.0325432 0.0160202 -0.90263
0.0350318 0.0163943 -0.9045
0.0375469 0.0168996 -0.906185
0.0410898 0.0168419 -0.907196
0.0448337 0.0170664 -0.907706
0.0479473 0.0177691 -0.908461
0.05163 0.0178043 -0.909205
0.054577 0.0178115 -0.910728
0.0564979 0.0186873 -0.91307
0.059403 0.0186132 -0.914641
0.0630709 0.0187286 -0.915268
0.0674382 0.0189581 -0.914984
0.0717784 0.0192436 -0.914608
0.0767719 0.0194783 -0.913488
0.0824161 0.0196741 -0.911587
0.0873234 0.0200073 -0.910304
0.0922701 0.0202074 -0.909194
0.0971584 0.0205127 -0.907933
0.102061 0.0207329 -0.906778
0.107596 0.0209251 -0.904837
0.113157 0.021022 -0.90307
0.117272 0.0214372 -0.902373
0.122085 0.0216869 -0.901126
0.126942 0.0217988 -0.900203
0.130386 0.022302 -0.89994
0.135233 0.0222766 -0.899409
0.138725 0.0227223 -0.899252
0.142851 0.022813 -0.899233
0.146319 0.0229906 -0.899831
0.149294 0.0233847 -0.90059
0.152712 0.0235135 -0.901444
0.155727 0.0239003 -0.902032
0.159168 0.0240844 -0.902686
0.162587 0.0242567 -0.903389
0.165596 0.0246238 -0.904075
0.168982 0.0247686 -0.904858
0.172381 0.0249149 -0.905589
0.175353 0.0252692 -0.906397
0.178805 0.025489 -0.906913
0.182281 0.0257428 -0.907211
0.185691 0.0259995 -0.907154
0.190335 0.0262034 -0.906266
0.194907 0.0264233 -0.90493
0.199489 0.0266611 -0.903693
0.203975 0.0268407 -0.902198
0.208969 0.0269913 -0.899821
0.214761 0.0273165 -0.897301
0.218584 0.0273369 -0.895965
0.222437 0.0276998 -0.896162
0.225046 0.0279174 -0.897344
0.22694 0.0281922 -0.900556
0.227691 0.0284449 -0.904597
0.228294 0.0287355 -0.909238
0.228424 0.029037 -0.914734
0.228585 0.0293345 -0.92024
0.227722 0.0296574 -0.927483
0.22687 0.0299702 -0.934746
0.226565 0.030247 -0.941166
0.226192 0.0308799 -0.948401
0.227725 0.0308269 -0.9515
0.229816 0.0312804 -0.954407
0.00823134 0.0106927 -0.8887
0.0113743 0.010857 -0.889512
0.0145204 0.0110823 -0.890383
0.0179105 0.0113238 -0.891717
0.0206011 0.0116123 -0.892928
0.0234254 0.0118308 -0.894547
0.0260522 0.0119889 -0.896381
0.0284845 0.0124312 -0.898078
0.0309965 0.0125914 -0.900079
0.0333043 0.0128211 -0.902245
0.0358754 0.013115 -0.90401
0.0389155 0.0133514 -0.905343
0.0426571 0.0136155 -0.905813
0.0464083 0.0140556 -0.905858
0.0507172 0.014078 -0.906155
0.0542702 0.0141101 -0.906976
0.0567349 0.0145568 -0.908656
0.059134 0.0148812 -0.91062
0.0616324 0.015466 -0.912289
0.065864 0.0152013 -0.912657
0.0695713 0.0157395 -0.912739
0.073885 0.0160491 -0.912326
0.0795517 0.0162168 -0.910505
0.0851389 0.0165146 -0.908475
0.0900839 0.016747 -0.90734
0.0950257 0.0169408 -0.906257
0.0999184 0.0172135 -0.905044
0.104769 0.0175323 -0.903743
0.110359 0.0176037 -0.902079
0.11447 0.018045 -0.901292
0.119336 0.0182203 -0.900238
0.124198 0.0183607 -0.899297
0.127639 0.0188469 -0.899068
0.132506 0.0188274 -0.898583
0.135969 0.019309 -0.898302
0.140122 0.019466 -0.898131
0.143644 0.0197394 -0.898447
0.147093 0.0198642 -0.899196
0.150045 0.0202173 -0.900106
0.153035 0.0206003 -0.900859
0.156428 0.020698 -0.90175
0.159873 0.0208879 -0.902364
0.162884 0.021287 -0.902954
0.166319 0.0214664 -0.903602
0.169707 0.0216093 -0.90438
0.172722 0.0219988 -0.905018
0.176097 0.0221429 -0.90579
0.179502 0.0223302 -0.906513
0.183005 0.0225687 -0.907121
0.185845 0.0229026 -0.907191
0.190459 0.0230968 -0.906345
0.195063 0.0233253 -0.905201
0.198979 0.0235208 -0.904433
0.203501 0.0237346 -0.903109
0.209224 0.0239834 -0.900299
0.214282 0.0242013 -0.898134
0.218743 0.0243592 -0.896447
0.222559 0.0246558 -0.896441
0.225305 0.0248613 -0.897507
0.227409 0.0251497 -0.900516
0.228171 0.0253606 -0.904058
0.229035 0.0256682 -0.908623
0.22945 0.026032 -0.914088
0.229932 0.0262591 -0.918773
0.229793 0.0266706 -0.925161
0.229269 0.0268674 -0.93155
0.228912 0.0271065 -0.937967
0.229233 0.0274141 -0.943529
0.230201 0.0278448 -0.94819
0.232009 0.0279936 -0.951218
0.234446 0.028272 -0.953327
0.00664467 0.00690913 -0.889912
0.0103641 0.00731869 -0.890575
0.0139781 0.00774253 -0.891429
0.0171609 0.00786526 -0.892361
0.020529 0.00843115 -0.893643
0.0232474 0.00843299 -0.89502
0.0259242 0.00888539 -0.896844
0.0284324 0.0090552 -0.898671
0.0307572 0.00931388 -0.900763
0.033144 0.009554 -0.902764
0.0355532 0.00978757 -0.904637
0.0391214 0.0100997 -0.905468
0.0435183 0.0103602 -0.905295
0.0478939 0.0105676 -0.905289
0.0516105 0.0108996 -0.905362
0.0547723 0.0113645 -0.90612
0.0577777 0.0116073 -0.907547
0.0606815 0.0116882 -0.909169
0.0637134 0.0119975 -0.91037
0.067371 0.0123281 -0.910737
0.0717051 0.0125101 -0.910534
0.0766731 0.0127905 -0.90937
0.0822656 0.0131108 -0.907322
0.087939 0.0132055 -0.905623
0.092141 0.0136402 -0.904974
0.0970605 0.0138749 -0.903835
0.101964 0.0140992 -0.902702
0.106871 0.014289 -0.901644
0.111003 0.0146953 -0.900887
0.115892 0.0148663 -0.899876
0.120733 0.0150908 -0.898741
0.124886 0.0153886 -0.898164
0.12906 0.0156322 -0.8978
0.133219 0.0158895 -0.897372
0.137376 0.0161143 -0.897037
0.141491 0.0162016 -0.897085
0.144447 0.0167156 -0.897585
0.147897 0.01679 -0.898419
0.15087 0.0172148 -0.899205
0.154264 0.0172519 -0.900115
0.157236 0.0176616 -0.900937
0.160659 0.0177841 -0.901633
0.164084 0.0179427 -0.902274
0.167069 0.018352 -0.90301
0.170464 0.0184869 -0.903733
0.173471 0.0188851 -0.904422
0.1768 0.0189825 -0.905361
0.17979 0.0193388 -0.906047
0.183164 0.0194963 -0.906874
0.186611 0.0197696 -0.90697
0.191253 0.0199593 -0.906232
0.195229 0.0202223 -0.905524
0.199173 0.0204544 -0.904824
0.203746 0.0206959 -0.903617
0.209442 0.0209376 -0.900697
0.213771 0.0210925 -0.89889
0.218261 0.0212758 -0.897131
0.222785 0.0215841 -0.896417
0.225764 0.0218146 -0.897349
0.227776 0.0220632 -0.899692
0.228961 0.022317 -0.903423
0.229835 0.0226104 -0.907993
0.230478 0.0228718 -0.912641
0.231114 0.0231326 -0.9173
0.231632 0.0233429 -0.921969
0.231427 0.0236553 -0.928358
0.231215 0.0239625 -0.934762
0.231306 0.0245471 -0.94105
0.232858 0.0245119 -0.944159
0.235111 0.0245517 -0.946394
0.237689 0.0250505 -0.948359
0.00649204 0.00421354 -0.891222
0.00961933 0.00427328 -0.892169
0.013249 0.00474633 -0.893
0.0164329 0.00474226 -0.893845
0.0194322 0.00503962 -0.895197
0.0224103 0.00533783 -0.896563
0.0249967 0.00537604 -0.898239
0.0277723 0.00582467 -0.8999
0.0300586 0.00610297 -0.902069
0.0325189 0.0062815 -0.903975
0.0350403 0.00643201 -0.905572
0.0392383 0.00685542 -0.906168
0.0436878 0.00708845 -0.905505
0.048075 0.00735056 -0.905304
0.0517891 0.00765541 -0.905439
0.05603 0.00767534 -0.906016
0.0590937 0.00800248 -0.906926
0.0616123 0.00863281 -0.90823
0.0658573 0.00853886 -0.908534
0.0702142 0.00884489 -0.908141
0.0752177 0.00912822 -0.906979
0.0801365 0.00953297 -0.905647
0.0858281 0.00959561 -0.904031
0.0900192 0.010077 -0.903317
0.0949666 0.0102658 -0.902288
0.0998798 0.0104945 -0.901201
0.104089 0.0108265 -0.900695
0.108282 0.0111601 -0.900135
0.113175 0.011345 -0.89918
0.117307 0.0117077 -0.89841
0.122173 0.0118939 -0.897515
0.126349 0.0121471 -0.897126
0.130486 0.0124408 -0.896544
0.134626 0.0127165 -0.896042
0.138779 0.0129197 -0.895839
0.142289 0.0132545 -0.895962
0.145794 0.0134712 -0.896482
0.149281 0.0136714 -0.896987
0.15273 0.0137908 -0.897605
0.155664 0.0142007 -0.89854
0.158592 0.0146105 -0.899518
0.161979 0.0145492 -0.900366
0.164938 0.0150303 -0.901216
0.168331 0.0150677 -0.901948
0.171286 0.0154836 -0.902855
0.174583 0.0154769 -0.9038
0.177524 0.0158237 -0.904828
0.180467 0.0161681 -0.90576
0.183379 0.0165378 -0.906498
0.187349 0.0166491 -0.906521
0.191356 0.0168848 -0.906078
0.195364 0.0171186 -0.905685
0.199324 0.0173705 -0.905046
0.203888 0.0176076 -0.903831
0.208845 0.0178242 -0.901345
0.213975 0.0180604 -0.899291
0.219034 0.0183153 -0.897192
0.222982 0.0185102 -0.896475
0.226115 0.0188073 -0.897256
0.228018 0.0190635 -0.899405
0.229575 0.0192836 -0.903477
0.230332 0.0195194 -0.907424
0.23111 0.0197396 -0.91127
0.231773 0.0200322 -0.916694
0.232385 0.0202776 -0.921363
0.232592 0.0205367 -0.926886
0.232971 0.0208239 -0.93242
0.233585 0.0210028 -0.937165
0.234792 0.0214822 -0.941676
0.236788 0.0218839 -0.944507
0.239276 0.0217965 -0.946113
0.241851 0.0219156 -0.947652
0.00838769 0.000894699 -0.893904
0.0114849 0.00105026 -0.895023
0.0150442 0.00165512 -0.895991
0.0175564 0.00159057 -0.89768
0.0230449 0.00196961 -0.900881
0.0265111 0.00257052 -0.901817
0.0295533 0.00275804 -0.903127
0.0321883 0.00291505 -0.904595
0.0351171 0.0032272 -0.906022
0.038792 0.00350564 -0.906526
0.0438508 0.00380186 -0.905682
0.0482426 0.00408222 -0.905399
0.0519431 0.00445953 -0.905333
0.0563206 0.00472588 -0.90532
0.0600168 0.00505876 -0.905743
0.0636844 0.00529641 -0.90632
0.0680143 0.00549017 -0.906119
0.0730058 0.00574695 -0.905014
0.0779573 0.00608952 -0.903782
0.0829471 0.00627636 -0.902764
0.0871603 0.00673999 -0.902095
0.0921211 0.00691757 -0.901082
0.0970577 0.00710883 -0.900074
0.101268 0.00747574 -0.899454
0.105506 0.00771643 -0.899131
0.109703 0.00801458 -0.898595
0.114596 0.00820474 -0.897772
0.118772 0.00849271 -0.897262
0.122963 0.00874793 -0.896942
0.12712 0.00902142 -0.896454
0.131952 0.0092434 -0.8956
0.136079 0.00950629 -0.895138
0.139543 0.00984213 -0.89503
0.143681 0.0100164 -0.89497
0.147171 0.0103327 -0.895126
0.150675 0.0106794 -0.895343
0.154713 0.0105686 -0.895518
0.157626 0.0110748 -0.89633
0.16053 0.0114622 -0.897367
0.163449 0.0118575 -0.898417
0.166838 0.0118064 -0.899158
0.169742 0.0121488 -0.900254
0.172634 0.0124376 -0.901408
0.1755 0.0126527 -0.902652
0.178374 0.0129012 -0.903827
0.181254 0.0131892 -0.904917
0.184652 0.0133378 -0.90549
0.188653 0.0134147 -0.905458
0.192087 0.0137769 -0.905523
0.195478 0.0141059 -0.905491
0.200088 0.014253 -0.904697
0.203954 0.0145463 -0.903786
0.209727 0.0147943 -0.901199
0.214141 0.0150089 -0.899574
0.218617 0.0152039 -0.898055
0.223051 0.0155791 -0.897121
0.226162 0.0159286 -0.897691
0.228227 0.0159552 -0.900068
0.229549 0.0161716 -0.903797
0.23027 0.0165038 -0.907723
0.231223 0.0167025 -0.9123
0.231841 0.0169503 -0.916957
0.232398 0.0172027 -0.921633
0.23292 0.01744 -0.927124
0.233505 0.0176833 -0.931853
0.234821 0.0180204 -0.936365
0.236075 0.0181117 -0.939569
0.237909 0.0183415 -0.942619
0.240154 0.0187181 -0.945322
0.242505 0.0189568 -0.947466
0.0364362 -0.000113143 -0.905743
0.0396141 0.000287469 -0.905895
0.0447049 0.000519154 -0.905237
0.0490963 0.000799946 -0.904942
0.0534576 0.00112208 -0.904505
0.0585136 0.00134258 -0.903537
0.0628596 0.00156465 -0.903279
0.0672131 0.00183014 -0.902943
0.0707965 0.00245063 -0.902962
0.0765268 0.00240384 -0.901482
0.0807831 0.00283396 -0.900918
0.0850412 0.00320477 -0.900414
0.0900242 0.00330706 -0.899575
0.0942441 0.00372709 -0.898929
0.098498 0.00399229 -0.898566
0.102742 0.0042183 -0.898373
0.106991 0.00446455 -0.898207
0.111202 0.00476756 -0.897728
0.115385 0.0050597 -0.897204
0.11959 0.00532818 -0.897011
0.123085 0.00561032 -0.896888
0.127231 0.00588346 -0.896352
0.132061 0.00614702 -0.895492
0.136196 0.00641866 -0.895017
0.140335 0.00667428 -0.894689
0.144452 0.00693487 -0.894265
0.148574 0.00714753 -0.893999
0.152031 0.00756729 -0.893907
0.156122 0.00776317 -0.893648
0.16018 0.007667 -0.893737
0.163055 0.0082308 -0.894481
0.166472 0.00829763 -0.895058
0.169341 0.00861496 -0.896183
0.172172 0.00878209 -0.897468
0.174542 0.00932157 -0.899216
0.177368 0.00946945 -0.900525
0.180204 0.00963488 -0.901825
0.183107 0.0100221 -0.90287
0.186511 0.0101307 -0.903421
0.189944 0.0103313 -0.903902
0.192821 0.0109109 -0.904372
0.196802 0.010946 -0.904422
0.20079 0.0111859 -0.903996
0.20468 0.0114971 -0.903129
0.209829 0.0117166 -0.90129
0.214337 0.0120076 -0.900039
0.218232 0.0120997 -0.899113
0.222205 0.0123248 -0.898607
0.225447 0.0127605 -0.899268
0.227482 0.0127559 -0.9019
0.228596 0.0130656 -0.905798
0.229601 0.0133991 -0.909636
0.230508 0.0135523 -0.914241
0.231192 0.0137952 -0.918896
0.231816 0.0140681 -0.923571
0.232527 0.0143178 -0.928247
0.233494 0.0145888 -0.932169
0.234889 0.014803 -0.935981
0.236414 0.0150234 -0.939122
0.238341 0.015287 -0.942679
0.240392 0.0155255 -0.945537
0.2425 0.0157908 -0.947843
0.244584 0.0160126 -0.950707
0.0374721 -0.00317264 -0.904138
0.0418475 -0.00303974 -0.904254
0.0462391 -0.00273492 -0.9039
0.0505993 -0.00238063 -0.903452
0.0563763 -0.00219867 -0.901787
0.0606521 -0.00166599 -0.901106
0.0657042 -0.00153773 -0.900208
0.0700296 -0.00124945 -0.899871
0.0743514 -0.000999016 -0.899581
0.0786206 -0.000576371 -0.89904
0.0836303 -0.000526522 -0.898272
0.0871582 0.000144767 -0.898051
0.0921287 0.000145356 -0.897433
0.0957147 0.000590722 -0.89746
0.09994 0.000722314 -0.897604
0.10354 0.00103661 -0.897903
0.107122 0.00133687 -0.898125
0.111342 0.00161281 -0.897854
0.115527 0.00189664 -0.897244
0.119737 0.00217349 -0.897141
0.123242 0.00243356 -0.897073
0.128111 0.00272899 -0.896498
0.132215 0.00300372 -0.895714
0.136347 0.00328194 -0.895229
0.140445 0.00358049 -0.894599
0.145223 0.00383231 -0.893655
0.149316 0.00411614 -0.893146
0.153405 0.00439341 -0.892691
0.157478 0.00470625 -0.892129
0.161559 0.0048928 -0.891897
0.165022 0.00526836 -0.892066
0.168466 0.00544298 -0.892577
0.171346 0.005797 -0.893669
