ply
format ascii 1.0
comment Created by Open3D
element vertex 1706
property double x
property double y
property double z
end_header
0.138739 0.266458 -0.902885
0.140151 0.266377 -0.903081
0.141564 0.266289 -0.903275
0.142986 0.266212 -0.903435
0.144653 0.266778 -0.90385
0.146083 0.266736 -0.903941
0.14752 0.266721 -0.903972
0.148961 0.266738 -0.90394
0.150402 0.266761 -0.903899
0.151843 0.26679 -0.903848
0.153096 0.266184 -0.903416
0.15453 0.266193 -0.903402
0.155959 0.266187 -0.90341
0.157381 0.266154 -0.903464
0.15879 0.266099 -0.903552
0.160457 0.266636 -0.904118
0.162134 0.267086 -0.904869
0.163805 0.267465 -0.905763
0.165109 0.267193 -0.906146
0.167049 0.268003 -0.907849
0.168608 0.268181 -0.909001
0.170505 0.26887 -0.910878
0.0429781 0.279005 -0.951582
0.0446255 0.279346 -0.952064
0.0461225 0.279331 -0.9523
0.0476304 0.279331 -0.952521
0.049147 0.279339 -0.952669
0.0507583 0.279646 -0.952799
0.0522701 0.279642 -0.952855
0.053783 0.279638 -0.952862
0.0552958 0.27963 -0.952818
0.056798 0.279617 -0.952729
0.0582912 0.279595 -0.952584
0.0597742 0.279573 -0.952383
0.0613513 0.279373 -0.952204
0.0628326 0.279351 -0.951997
0.0642958 0.279338 -0.951746
0.0659013 0.279065 -0.951424
0.0673213 0.279057 -0.951032
0.068694 0.279085 -0.95059
0.0702783 0.278762 -0.950025
0.0718467 0.278415 -0.949306
0.0730848 0.278529 -0.948734
0.07483 0.277763 -0.94739
0.076138 0.277524 -0.946172
0.0775915 0.276873 -0.944255
0.0786222 0.276787 -0.942868
0.080121 0.275776 -0.940081
0.0814973 0.274837 -0.937158
0.0851527 0.272529 -0.929099
0.0862791 0.272021 -0.926993
0.0874376 0.271512 -0.924897
0.0889066 0.27045 -0.922122
0.0902435 0.269804 -0.920194
0.0913752 0.26969 -0.918974
0.0927815 0.268975 -0.91713
0.0940254 0.268784 -0.916004
0.095271 0.26861 -0.914868
0.0966831 0.267835 -0.913081
0.0979493 0.267642 -0.91197
0.0992565 0.267402 -0.910911
0.100693 0.266506 -0.909254
0.101921 0.266851 -0.908868
0.103269 0.266542 -0.907882
0.104628 0.266202 -0.906933
0.105995 0.265836 -0.906022
0.10731 0.266093 -0.905681
0.108705 0.265661 -0.904852
0.110101 0.265203 -0.9041
0.111469 0.265369 -0.903831
0.112873 0.264861 -0.903199
0.114259 0.264993 -0.902962
0.115653 0.265111 -0.902723
0.117055 0.264565 -0.902247
0.118457 0.264663 -0.902037
0.119844 0.264128 -0.901618
0.121249 0.264198 -0.901472
0.122662 0.264256 -0.901339
0.124082 0.264295 -0.901242
0.125508 0.264322 -0.901175
0.126939 0.264329 -0.901158
0.128371 0.264334 -0.901141
0.129803 0.264329 -0.901151
0.131234 0.264306 -0.901207
0.13266 0.26427 -0.901294
0.134081 0.264218 -0.901413
0.135713 0.264754 -0.901818
0.13714 0.26471 -0.901932
0.138561 0.264647 -0.90207
0.140218 0.265174 -0.902566
0.141633 0.265098 -0.90274
0.143054 0.265037 -0.90287
0.144481 0.264989 -0.902969
0.145914 0.264957 -0.903031
0.147353 0.264949 -0.903047
0.148793 0.264956 -0.903033
0.150233 0.264982 -0.902983
0.151673 0.265016 -0.902916
0.153114 0.265048 -0.902854
0.154556 0.265062 -0.902827
0.155997 0.265055 -0.902843
0.157435 0.26503 -0.902891
0.158868 0.264989 -0.90297
0.160281 0.264902 -0.903134
0.161668 0.264791 -0.903339
0.163351 0.265246 -0.904036
0.165016 0.26562 -0.904907
0.166634 0.265894 -0.905941
0.168213 0.266111 -0.90705
0.170113 0.266809 -0.908903
0.171974 0.267433 -0.910858
0.0430409 0.277534 -0.951164
0.0444803 0.277499 -0.951704
0.0461299 0.277828 -0.952148
0.047617 0.277825 -0.952443
0.0492584 0.27813 -0.952684
0.0506445 0.27786 -0.952865
0.0522715 0.278126 -0.952991
0.053791 0.27813 -0.953053
0.0553107 0.278132 -0.953062
0.0568286 0.278129 -0.953028
0.0583306 0.278114 -0.952886
0.0598195 0.278098 -0.952718
0.061413 0.277876 -0.952508
0.0628789 0.277847 -0.952208
0.0643134 0.277831 -0.951853
0.0659158 0.277538 -0.951413
0.067301 0.277545 -0.950964
0.0688918 0.277215 -0.950357
0.0701968 0.277275 -0.949829
0.0717267 0.276951 -0.94904
0.073215 0.276635 -0.948122
0.0745935 0.276366 -0.947028
0.0761733 0.275672 -0.945279
0.0772279 0.275558 -0.943889
0.078806 0.274523 -0.941164
0.0799816 0.274015 -0.939038
0.0813579 0.273082 -0.93612
0.0836855 0.271711 -0.930994
0.0850062 0.270782 -0.928063
0.0863664 0.269815 -0.92518
0.0875157 0.269298 -0.923095
0.0887337 0.268744 -0.921056
0.0900476 0.268124 -0.919102
0.0911672 0.268017 -0.917869
0.0925875 0.267307 -0.916026
0.0937809 0.267166 -0.914848
0.0951858 0.266435 -0.913021
0.0964157 0.266278 -0.911869
0.0978153 0.2655 -0.910087
0.0991095 0.265266 -0.909021
0.100432 0.264996 -0.907997
0.101776 0.264688 -0.907016
0.103131 0.264351 -0.906073
0.104431 0.264625 -0.905724
0.105811 0.264236 -0.90484
0.107205 0.263799 -0.904041
0.108596 0.263336 -0.903308
0.109966 0.263497 -0.903062
0.111352 0.263631 -0.902834
0.112751 0.263741 -0.902617
0.114158 0.263189 -0.902106
0.115564 0.263284 -0.901916
0.116953 0.26273 -0.901487
0.118361 0.262813 -0.901323
0.119776 0.262882 -0.901169
0.121195 0.262938 -0.901034
0.122618 0.262985 -0.900911
0.124048 0.263016 -0.900827
0.125482 0.263042 -0.900755
0.12692 0.263064 -0.900698
0.128361 0.263069 -0.900689
0.129803 0.263073 -0.900689
0.131245 0.263068 -0.900711
0.132685 0.263046 -0.900771
0.134117 0.263002 -0.900882
0.135546 0.262955 -0.900992
0.136972 0.262904 -0.9011
0.138395 0.262848 -0.901211
0.139817 0.262783 -0.901331
0.141465 0.263343 -0.901807
0.142888 0.263277 -0.901935
0.144315 0.263223 -0.902036
0.145748 0.263187 -0.902104
0.147185 0.263174 -0.902131
0.148624 0.263176 -0.902127
0.150062 0.263188 -0.902107
0.1515 0.263202 -0.902082
0.152938 0.263212 -0.902062
0.154374 0.263214 -0.90206
0.15581 0.26321 -0.902068
0.157242 0.263194 -0.902104
0.158668 0.263157 -0.902182
0.160366 0.263735 -0.902592
0.161783 0.26364 -0.902789
0.163173 0.26352 -0.903028
0.16453 0.263367 -0.903312
0.166188 0.263739 -0.904147
0.168169 0.264577 -0.905749
0.169735 0.26477 -0.906904
0.171592 0.265388 -0.908865
0.0431023 0.276037 -0.950845
0.0442826 0.27568 -0.951414
0.0461359 0.276317 -0.952084
0.0477933 0.276614 -0.952442
0.0492632 0.276607 -0.95274
0.0507538 0.276608 -0.95299
0.0522627 0.276615 -0.953185
0.0537862 0.276627 -0.953307
0.0553184 0.276634 -0.953333
0.0568493 0.276634 -0.953307
0.0583663 0.276625 -0.953184
0.0598607 0.276607 -0.952988
0.061326 0.276591 -0.952724
0.0629218 0.276326 -0.952354
0.064326 0.276318 -0.951914
0.0659164 0.276011 -0.951368
0.0672561 0.276042 -0.950844
0.0688323 0.275713 -0.950176
0.0703757 0.275374 -0.949358
0.0715692 0.275507 -0.948751
0.0730181 0.275215 -0.947807
0.0746744 0.274492 -0.946217
0.0761867 0.273833 -0.944338
0.0772048 0.273733 -0.94295
0.078453 0.273193 -0.94089
0.0798884 0.272234 -0.938031
0.0809854 0.271748 -0.935892
0.0825472 0.270412 -0.932146
0.0835599 0.269953 -0.929972
0.0848663 0.269036 -0.927034
0.0859727 0.268549 -0.924911
0.0873625 0.267572 -0.922052
0.0885924 0.267016 -0.920019
0.0898836 0.26642 -0.918039
0.0912574 0.265754 -0.916147
0.0923793 0.265645 -0.914919
0.0937401 0.264975 -0.913028
0.094901 0.264869 -0.911816
0.0964128 0.263597 -0.909269
0.097529 0.263988 -0.908831
0.0989412 0.263169 -0.907103
0.100282 0.262858 -0.906129
0.101544 0.263156 -0.905767
0.102928 0.262785 -0.90486
0.104312 0.262386 -0.904001
0.105699 0.261951 -0.90321
0.107052 0.262147 -0.902922
0.10845 0.261649 -0.902259
0.109839 0.261778 -0.902047
0.111241 0.261881 -0.901861
0.112637 0.261328 -0.90137
0.114047 0.261402 -0.901236
0.115461 0.261471 -0.901098
0.116881 0.26153 -0.900965
0.118302 0.261581 -0.900839
0.119724 0.261629 -0.900716
0.121151 0.261669 -0.9006
0.122579 0.261715 -0.900474
0.12394 0.261151 -0.900193
0.125365 0.261185 -0.900103
0.126793 0.261219 -0.900016
0.128224 0.261241 -0.899963
0.129658 0.261257 -0.89993
0.131092 0.261261 -0.899922
0.132528 0.261253 -0.899942
0.133961 0.261225 -0.9
0.135391 0.261193 -0.900062
0.136818 0.261147 -0.900145
0.13845 0.26172 -0.900619
0.139876 0.261655 -0.900748
0.141299 0.261586 -0.900876
0.142724 0.261523 -0.900986
0.144152 0.261476 -0.901069
0.145582 0.26143 -0.901151
0.147016 0.26141 -0.901192
0.148451 0.261392 -0.901229
0.149888 0.26139 -0.901241
0.151323 0.261394 -0.901245
0.152756 0.261386 -0.901268
0.154187 0.26137 -0.901311
0.155615 0.261354 -0.901359
0.15704 0.261333 -0.901413
0.158718 0.261931 -0.901726
0.160148 0.261879 -0.90184
0.161564 0.26181 -0.90199
0.162963 0.261726 -0.902168
0.164683 0.262213 -0.90277
0.166032 0.262055 -0.903079
0.167708 0.262424 -0.903933
0.169331 0.262705 -0.904953
0.170869 0.262884 -0.906125
0.0431652 0.274533 -0.950595
0.0444992 0.2745 -0.951403
0.0461421 0.2748 -0.952042
0.0475893 0.274798 -0.952467
0.0492533 0.27509 -0.952851
0.0507387 0.275092 -0.953152
0.0522459 0.275102 -0.953369
0.0537756 0.275113 -0.953487
0.0553536 0.275348 -0.953505
0.0568499 0.27535 -0.95351
0.0583982 0.27511 -0.953424
0.0599004 0.275098 -0.953215
0.0613581 0.275088 -0.952898
0.0627576 0.275091 -0.952475
0.0643237 0.274805 -0.951916
0.0658979 0.274487 -0.951279
0.0672015 0.274546 -0.950726
0.0687534 0.274225 -0.949996
0.070266 0.273906 -0.94913
0.0714096 0.274066 -0.948505
0.0728111 0.273804 -0.947526
0.0744356 0.273097 -0.945933
0.0758848 0.272472 -0.944041
0.077183 0.271914 -0.942002
0.0783811 0.271398 -0.939906
0.0798153 0.270446 -0.937037
0.0808649 0.269981 -0.934873
0.0821769 0.26908 -0.931927
0.0834662 0.268184 -0.92897
0.0847726 0.267272 -0.926033
0.085845 0.266804 -0.923887
0.0869728 0.266315 -0.921763
0.0884719 0.265277 -0.918999
0.08976 0.264687 -0.917015
0.0910701 0.264073 -0.91506
0.0923712 0.263456 -0.913106
0.0934551 0.263391 -0.911843
0.0949372 0.262205 -0.909208
0.0961219 0.26207 -0.908035
0.0973736 0.261884 -0.906915
0.0986903 0.261633 -0.905868
0.100041 0.261328 -0.904884
0.10142 0.260966 -0.903973
0.102803 0.26057 -0.903121
0.104141 0.260776 -0.90283
0.105536 0.260326 -0.902067
0.106924 0.259836 -0.90141
0.108314 0.259955 -0.90122
0.109714 0.260057 -0.901042
0.111129 0.260128 -0.900905
0.112549 0.260186 -0.900778
0.113975 0.260228 -0.900669
0.115402 0.260265 -0.900566
0.116831 0.260306 -0.900456
0.118199 0.259746 -0.900115
0.119623 0.259789 -0.900005
0.121049 0.25982 -0.899925
0.122473 0.259859 -0.899825
0.123898 0.259903 -0.899715
0.125326 0.259942 -0.899634
0.126756 0.259987 -0.899545
0.128098 0.259406 -0.899216
0.129522 0.259444 -0.899126
0.13095 0.259472 -0.899061
0.13238 0.259494 -0.899016
0.133812 0.259502 -0.899001
0.135244 0.259492 -0.899018
0.136673 0.259458 -0.899074
0.138098 0.259406 -0.899158
0.139519 0.259339 -0.899262
0.141147 0.259905 -0.899816
0.142571 0.25984 -0.899922
0.143995 0.259775 -0.900026
0.145634 0.260369 -0.900518
0.147064 0.260329 -0.900572
0.148493 0.260294 -0.900618
0.149923 0.260263 -0.900656
0.151355 0.260235 -0.900695
0.152787 0.260201 -0.900751
0.15422 0.260168 -0.90081
0.155651 0.260135 -0.900876
0.15708 0.260097 -0.900961
0.158509 0.260068 -0.901029
0.159929 0.260021 -0.901142
0.16134 0.259971 -0.901259
0.162736 0.259902 -0.90142
0.164117 0.259826 -0.901584
0.165828 0.260296 -0.90216
0.167545 0.260725 -0.902865
0.168818 0.260516 -0.903281
0.170811 0.261302 -0.904885
0.172348 0.261489 -0.906055
0.0449908 0.273616 -0.951575
0.0463692 0.273593 -0.95213
0.0477926 0.273579 -0.95256
0.0492416 0.273572 -0.952953
0.05072 0.273574 -0.953287
0.05223 0.273578 -0.953512
0.0538555 0.273848 -0.953603
0.055359 0.273851 -0.953674
0.0568597 0.273853 -0.953668
0.0583495 0.27385 -0.953552
0.0599219 0.273568 -0.953313
0.061366 0.273574 -0.952941
0.0627404 0.273604 -0.952462
0.0642936 0.273301 -0.951838
0.0658472 0.27298 -0.951126
0.0674173 0.272642 -0.950382
0.0689659 0.272299 -0.94953
0.0701437 0.272446 -0.948915
0.0715899 0.272157 -0.94794
0.0729412 0.271913 -0.946843
0.0745195 0.271224 -0.945109
0.0755723 0.271119 -0.943758
0.0771266 0.270114 -0.941021
0.0783145 0.269607 -0.938919
0.0796861 0.268685 -0.936009
0.0810383 0.267774 -0.93308
0.0820584 0.267322 -0.93091
0.0833418 0.266433 -0.92795
0.0846444 0.265527 -0.92501
0.0859984 0.264585 -0.922122
0.0871507 0.264074 -0.920035
0.0883621 0.263533 -0.917988
0.0896214 0.262964 -0.915982
0.0908737 0.262397 -0.913974
0.0921239 0.261827 -0.91197
0.0933636 0.261263 -0.909959
0.0946493 0.260652 -0.908002
0.096005 0.259953 -0.906157
0.0972629 0.25974 -0.905066
0.0985851 0.25946 -0.90406
0.0999349 0.259138 -0.903111
0.101225 0.259378 -0.902774
0.102631 0.258958 -0.90196
0.104028 0.258502 -0.901233
0.105399 0.258649 -0.900992
0.106792 0.258776 -0.900769
0.108205 0.258869 -0.900579
0.1096 0.258303 -0.90011
0.111022 0.258348 -0.900022
0.112448 0.258382 -0.899944
0.113875 0.258414 -0.899864
0.115302 0.258447 -0.899777
0.116729 0.258478 -0.899693
0.118159 0.258497 -0.899638
0.119582 0.258526 -0.899562
0.120948 0.257966 -0.899269
0.122373 0.258003 -0.899171
0.123792 0.25805 -0.899051
0.12521 0.258102 -0.898924
0.12663 0.258158 -0.898798
0.127981 0.257606 -0.898378
0.129395 0.257669 -0.89823
0.130811 0.257727 -0.898107
0.132234 0.257772 -0.898021
0.133662 0.257806 -0.897961
0.135093 0.257821 -0.897939
0.136526 0.257818 -0.897946
0.137956 0.257788 -0.897993
0.139381 0.25774 -0.898064
0.140803 0.257678 -0.898156
0.142221 0.257605 -0.898264
0.14385 0.258145 -0.898886
0.14527 0.258072 -0.898998
0.14669 0.258002 -0.89911
0.148111 0.257943 -0.899215
0.149762 0.258517 -0.899712
0.151184 0.258451 -0.89982
0.15261 0.258401 -0.899912
0.154031 0.258343 -0.900032
0.155697 0.258891 -0.900433
0.157126 0.25884 -0.900527
0.15856 0.258808 -0.900587
0.159993 0.258773 -0.900671
0.161414 0.258722 -0.900801
0.162831 0.25867 -0.900934
0.164229 0.258601 -0.901108
0.165597 0.258507 -0.901334
0.167327 0.258952 -0.901952
0.169031 0.259326 -0.902761
0.170266 0.25911 -0.903235
0.17226 0.259855 -0.904884
0.173773 0.260035 -0.906078
0.0447936 0.271795 -0.951381
0.046393 0.272084 -0.952152
0.047788 0.272063 -0.952646
0.0492235 0.272052 -0.953068
0.0507074 0.272047 -0.953386
0.0523603 0.272342 -0.953613
0.0538543 0.272342 -0.953709
0.0553584 0.272342 -0.953779
0.0568651 0.272343 -0.953743
0.0583541 0.272354 -0.953642
0.0599357 0.272028 -0.953338
0.0613542 0.272062 -0.952902
0.0627127 0.272117 -0.952407
0.0642419 0.271812 -0.951706
0.0657818 0.27149 -0.950963
0.0673152 0.271161 -0.950147
0.0688178 0.27084 -0.949237
0.06995 0.271039 -0.948614
0.0713665 0.270765 -0.947624
0.0730223 0.270036 -0.946042
0.0745192 0.269386 -0.944178
0.0758103 0.268844 -0.942107
0.077033 0.268334 -0.940012
0.0784519 0.267399 -0.937124
0.0795517 0.26693 -0.934979
0.0808759 0.266032 -0.932035
0.082164 0.265144 -0.929076
0.0831994 0.264694 -0.926918
0.0845057 0.263791 -0.923979
0.0856026 0.263315 -0.921845
0.0870511 0.262325 -0.919031
0.0882383 0.2618 -0.916968
0.0894532 0.261261 -0.914927
0.0909034 0.260221 -0.912159
0.092068 0.2597 -0.910097
0.0930837 0.25966 -0.908795
0.0945968 0.258501 -0.906177
0.0957717 0.258355 -0.904994
0.0972306 0.257545 -0.903338
0.0983713 0.257865 -0.902876
0.099745 0.257529 -0.901946
0.101147 0.257126 -0.901138
0.102484 0.257297 -0.900853
0.103858 0.257445 -0.900597
0.105283 0.256927 -0.899993
0.106687 0.257023 -0.899808
0.108112 0.257084 -0.899673
0.10949 0.256509 -0.899289
0.110914 0.25654 -0.899226
0.112341 0.256563 -0.899182
0.11377 0.256584 -0.899136
0.115198 0.256607 -0.89908
0.116626 0.256634 -0.899011
0.118054 0.256654 -0.898958
0.119424 0.256083 -0.898717
0.120854 0.256122 -0.898601
0.122275 0.256168 -0.898464
0.123688 0.25623 -0.898298
0.125097 0.256298 -0.898126
0.126505 0.25637 -0.897963
0.127911 0.25646 -0.89778
0.129321 0.256561 -0.897596
0.130668 0.256017 -0.897093
0.13208 0.256096 -0.89695
0.133502 0.256154 -0.896857
0.134935 0.256191 -0.896806
0.136372 0.256204 -0.896793
0.137806 0.256191 -0.896821
0.139238 0.256166 -0.896859
0.140666 0.256119 -0.896927
0.142086 0.256049 -0.897025
0.143717 0.256588 -0.897657
0.145135 0.256492 -0.897791
0.14655 0.256403 -0.897923
0.147961 0.256319 -0.898055
0.149363 0.256215 -0.898232
0.150763 0.256115 -0.898424
0.152434 0.256649 -0.898979
0.153842 0.256565 -0.899151
0.155515 0.257086 -0.89963
0.156935 0.257026 -0.89975
0.158355 0.256976 -0.899862
0.159775 0.256937 -0.899965
0.161194 0.256903 -0.900059
0.162924 0.257408 -0.900449
0.16434 0.257345 -0.900621
0.165726 0.257259 -0.900864
0.167072 0.257148 -0.901163
0.168793 0.257541 -0.901881
0.170046 0.257372 -0.902326
0.171661 0.257657 -0.903297
0.173652 0.258365 -0.904971
0.175554 0.258991 -0.906883
0.0443025 0.269615 -0.950642
0.0461385 0.270249 -0.952042
0.0477819 0.27055 -0.952698
0.0492202 0.270532 -0.953085
0.0506986 0.270515 -0.953423
0.0523484 0.270836 -0.953647
0.0538519 0.270835 -0.953718
0.0553568 0.270836 -0.953756
0.056859 0.270843 -0.953732
0.058435 0.270473 -0.953518
0.0599092 0.270507 -0.953196
0.0613102 0.270573 -0.952753
0.062865 0.270234 -0.952091
0.0644056 0.269898 -0.951298
0.0659348 0.269557 -0.950436
0.0674452 0.269227 -0.949499
0.0686115 0.269443 -0.948884
0.0700499 0.269159 -0.947897
0.0714176 0.268916 -0.946821
0.0729975 0.268211 -0.945096
0.0741304 0.268099 -0.943802
0.0756704 0.267087 -0.941056
0.076862 0.266602 -0.938948
0.0782284 0.265684 -0.936031
0.0793676 0.265202 -0.933918
0.0817207 0.263869 -0.928812
0.0832951 0.262518 -0.925089
0.0843711 0.262057 -0.922949
0.0857607 0.261105 -0.920086
0.0869213 0.260596 -0.918005
0.0881064 0.260075 -0.915942
0.0892932 0.259555 -0.913884
0.090698 0.258556 -0.911072
0.0918587 0.258042 -0.909003
0.0930837 0.257487 -0.906986
0.0941689 0.257399 -0.905711
0.0958256 0.256122 -0.903339
0.0968658 0.256473 -0.902795
0.0983776 0.255607 -0.901289
0.0995975 0.255852 -0.900862
0.101025 0.255428 -0.900113
0.102366 0.255579 -0.899832
0.103797 0.25507 -0.899277
0.105185 0.255158 -0.899099
0.106592 0.25523 -0.898948
0.108014 0.255282 -0.89883
0.109374 0.254706 -0.898513
0.1108 0.254726 -0.89848
0.112227 0.254732 -0.89848
0.113657 0.254741 -0.89847
0.115091 0.254753 -0.898447
0.116523 0.254769 -0.898406
0.117954 0.254787 -0.898357
0.119383 0.254824 -0.89826
0.120803 0.254874 -0.898125
0.122213 0.254937 -0.897962
0.123617 0.255012 -0.897788
0.125013 0.255109 -0.897583
0.126382 0.254603 -0.897073
0.127768 0.254723 -0.896832
0.129129 0.254215 -0.896262
0.130516 0.254335 -0.896034
0.131864 0.253795 -0.895455
0.133259 0.253867 -0.895321
0.134662 0.25394 -0.8952
0.136076 0.253975 -0.895139
0.137496 0.253995 -0.895107
0.138914 0.253967 -0.895144
0.140332 0.25393 -0.895195
0.141743 0.25387 -0.89528
0.143145 0.253797 -0.895387
0.14478 0.254332 -0.896032
0.146178 0.254229 -0.896191
0.147832 0.254726 -0.896859
0.149221 0.254601 -0.897063
0.150877 0.25506 -0.897749
0.152271 0.254948 -0.89795
0.153658 0.254836 -0.898182
0.155044 0.254742 -0.898418
0.156741 0.255237 -0.898922
0.158143 0.255168 -0.899102
0.159551 0.25512 -0.899244
0.161273 0.25562 -0.899608
0.162689 0.255574 -0.899734
0.164089 0.255514 -0.899921
0.165471 0.255449 -0.900135
0.167207 0.255855 -0.900744
0.168507 0.255728 -0.901141
0.170219 0.256084 -0.90192
0.171875 0.256388 -0.90287
0.173472 0.256645 -0.903948
0.175426 0.257292 -0.905776
0.176825 0.257428 -0.907103
0.0461865 0.268749 -0.951877
0.0475459 0.268677 -0.952497
0.0492283 0.269014 -0.953037
0.0507111 0.268981 -0.953341
0.0523541 0.269339 -0.953581
0.0538484 0.269337 -0.953664
0.0553502 0.269341 -0.953659
0.0568867 0.268936 -0.953489
0.0583966 0.268967 -0.953261
0.0598426 0.269034 -0.952919
0.061217 0.269133 -0.952479
0.0627474 0.268793 -0.951767
0.0642595 0.268468 -0.950948
0.0657458 0.268157 -0.950035
0.0672031 0.267865 -0.949057
0.0683514 0.268115 -0.948475
0.070054 0.267318 -0.94701
0.0713842 0.267108 -0.945881
0.0728467 0.266467 -0.944014
0.0741817 0.26591 -0.942002
0.0754395 0.2654 -0.939938
0.0768324 0.264461 -0.937043
0.0831054 0.26081 -0.924026
0.0842025 0.260346 -0.921894
0.0856449 0.259367 -0.91907
0.0868261 0.258851 -0.917005
0.087976 0.258352 -0.914918
0.0893908 0.257365 -0.912103
0.0905176 0.256872 -0.910009
0.0916944 0.256351 -0.907949
0.0929429 0.255784 -0.905949
0.0942911 0.255143 -0.904069
0.0954763 0.25497 -0.902887
0.0969724 0.254183 -0.901296
0.098095 0.254465 -0.900757
0.0995174 0.254093 -0.899926
0.100947 0.253669 -0.899222
0.102284 0.253804 -0.898935
0.103719 0.253291 -0.898448
0.105096 0.253371 -0.898277
0.106499 0.253425 -0.898155
0.107918 0.253461 -0.898075
0.109344 0.253476 -0.898038
0.110774 0.253479 -0.898033
0.112205 0.253476 -0.898041
0.113636 0.253476 -0.898042
0.115066 0.253484 -0.89802
0.116495 0.253495 -0.89799
0.117919 0.253525 -0.897909
0.119336 0.253566 -0.897801
0.120741 0.253626 -0.897653
0.122139 0.2537 -0.897484
0.123514 0.253202 -0.897018
0.124898 0.253307 -0.896776
0.126276 0.252827 -0.896221
0.12764 0.252962 -0.895926
0.129007 0.252494 -0.895293
0.130368 0.252635 -0.895016
0.13175 0.252772 -0.894785
0.133155 0.252889 -0.8946
0.134497 0.252337 -0.894041
0.135912 0.252395 -0.893949
0.137337 0.252436 -0.89389
0.138766 0.252428 -0.893904
0.140191 0.252381 -0.893972
0.141608 0.252323 -0.894057
0.143248 0.252874 -0.894663
0.144659 0.252772 -0.894809
0.14605 0.252647 -0.894996
0.14743 0.252532 -0.895186
0.149093 0.252988 -0.895894
0.150454 0.252843 -0.89616
0.15212 0.253266 -0.896884
0.153789 0.25369 -0.897565
0.15516 0.253561 -0.897831
0.156537 0.253461 -0.898081
0.157919 0.253379 -0.898322
0.159305 0.253314 -0.898546
0.161038 0.253793 -0.898934
0.162433 0.253742 -0.899112
0.16382 0.253694 -0.899304
0.165558 0.254108 -0.899797
0.166904 0.254027 -0.900114
0.168637 0.254394 -0.900792
0.169893 0.254269 -0.901247
0.171582 0.254597 -0.902083
0.173201 0.254876 -0.903089
0.175231 0.255547 -0.904764
0.176665 0.255726 -0.906063
0.178514 0.256298 -0.908042
0.0460061 0.266887 -0.951314
0.0478517 0.26758 -0.95239
0.0492628 0.267523 -0.952827
0.0507431 0.267483 -0.953104
0.0522588 0.267457 -0.953266
0.0537915 0.267433 -0.95338
0.0553298 0.26744 -0.953304
0.0568459 0.267468 -0.953133
0.0583163 0.267531 -0.952866
0.0597251 0.267631 -0.952502
0.061257 0.26727 -0.951826
0.0627867 0.266921 -0.951047
0.0642862 0.266597 -0.950146
0.0657357 0.266312 -0.949136
0.066906 0.266587 -0.948567
0.0685672 0.265791 -0.947041
0.0699323 0.265567 -0.945948
0.071426 0.264893 -0.944109
0.0726046 0.264809 -0.942851
0.0741231 0.263771 -0.940085
0.0817589 0.259594 -0.925054
0.0829048 0.259119 -0.922949
0.0843245 0.258151 -0.920111
0.0855243 0.257635 -0.918051
0.0866867 0.257134 -0.915972
0.0878594 0.256624 -0.913904
0.0892396 0.255663 -0.911063
0.0903925 0.255156 -0.908989
0.0918566 0.254136 -0.906274
0.0928777 0.254034 -0.904985
0.0942425 0.253392 -0.903134
0.0956883 0.25268 -0.901473
0.0966993 0.25297 -0.90086
0.0980674 0.252663 -0.899909
0.0994746 0.252303 -0.899089
0.100912 0.251877 -0.898442
0.102235 0.251991 -0.898167
0.103605 0.252087 -0.897936
0.105016 0.25215 -0.897779
0.106444 0.252189 -0.897674
0.107878 0.252218 -0.897591
0.109318 0.252223 -0.897571
0.110753 0.252223 -0.897566
0.112189 0.252213 -0.897587
0.113616 0.252207 -0.897598
0.115042 0.252209 -0.897587
0.116466 0.25222 -0.897554
0.117883 0.252243 -0.897496
0.119244 0.251715 -0.897178
0.120654 0.251778 -0.897006
0.122046 0.251863 -0.896785
0.123423 0.251965 -0.896536
0.124801 0.251498 -0.896002
0.126192 0.251037 -0.895424
0.127531 0.251187 -0.895069
0.128864 0.251363 -0.894709
0.13022 0.250936 -0.894005
0.131574 0.250489 -0.893325
0.132929 0.250629 -0.893052
0.134324 0.250727 -0.892878
0.135736 0.250805 -0.89275
0.137169 0.250853 -0.892681
0.138608 0.250865 -0.892662
0.14005 0.250824 -0.892734
0.141474 0.25076 -0.892835
0.142885 0.250684 -0.892955
0.144274 0.250583 -0.893129
0.145934 0.251044 -0.893811
0.147291 0.2509 -0.894071
0.148958 0.25132 -0.894802
0.150293 0.251164 -0.895116
0.151961 0.25156 -0.895866
0.153282 0.2514 -0.896236
0.154963 0.251798 -0.896955
0.156653 0.252202 -0.89759
0.158016 0.252103 -0.897864
0.159391 0.252031 -0.898104
0.160765 0.25197 -0.898345
0.162132 0.251918 -0.898593
0.163885 0.252338 -0.899016
0.165244 0.25228 -0.899296
0.166984 0.252652 -0.899855
0.168279 0.252566 -0.900267
0.17 0.252905 -0.900989
0.17121 0.25279 -0.901478
0.173373 0.253523 -0.902775
0.174959 0.253778 -0.90388
0.176433 0.25399 -0.905118
0.178318 0.254572 -0.907042
0.180163 0.255136 -0.909035
0.0461449 0.26545 -0.950843
0.0476884 0.265719 -0.951893
0.0492993 0.266058 -0.952541
0.0507678 0.266014 -0.952814
0.0522728 0.265993 -0.952932
0.0537892 0.265983 -0.952987
0.0552963 0.266009 -0.952883
0.0567642 0.266076 -0.952636
0.0583133 0.265664 -0.952126
0.059717 0.26579 -0.951724
0.0612542 0.26542 -0.951005
0.0627583 0.265091 -0.95012
0.0642309 0.264788 -0.949155
0.065407 0.265083 -0.948574
0.0670379 0.264298 -0.947012
0.0686177 0.263551 -0.945282
0.0699002 0.263402 -0.944087
0.0711144 0.263311 -0.942852
0.0724676 0.262743 -0.940877
0.0803325 0.258421 -0.926029
0.0815262 0.257929 -0.923949
0.0826901 0.257449 -0.921851
0.0841713 0.256438 -0.919067
0.085361 0.255932 -0.917002
0.0865457 0.255422 -0.914939
0.0879548 0.254453 -0.912116
0.0890991 0.253956 -0.910032
0.0902831 0.253434 -0.90798
0.0915357 0.252871 -0.905985
0.0928712 0.25226 -0.904083
0.0939611 0.252119 -0.90281
0.0954456 0.25141 -0.901129
0.0967302 0.251155 -0.90008
0.0980943 0.25084 -0.89917
0.0994936 0.250471 -0.898416
0.100761 0.250627 -0.898009
0.1021 0.250751 -0.897685
0.103553 0.250268 -0.89723
0.104943 0.250328 -0.897063
0.106359 0.250362 -0.896969
0.107785 0.25038 -0.896917
0.109215 0.250386 -0.8969
0.110647 0.250376 -0.896928
0.112077 0.250366 -0.896957
0.113507 0.250358 -0.89698
0.114936 0.250354 -0.896992
0.116363 0.250363 -0.896964
0.117785 0.250388 -0.89689
0.119196 0.250431 -0.896768
0.12059 0.250499 -0.896583
0.12197 0.250023 -0.896137
0.123344 0.250124 -0.895859
0.124735 0.249677 -0.895301
0.126069 0.24982 -0.894933
0.127447 0.249403 -0.89426
0.128743 0.249593 -0.893822
0.130103 0.24919 -0.893098
0.131424 0.249364 -0.892726
0.132783 0.248928 -0.892058
0.134159 0.249045 -0.891816
0.1355 0.248542 -0.891281
0.136892 0.248599 -0.891156
0.138301 0.248625 -0.891104
0.139713 0.248613 -0.891127
0.141339 0.249151 -0.891624
0.142754 0.24906 -0.891793
0.144137 0.248952 -0.892007
0.145803 0.249376 -0.892707
0.147132 0.249214 -0.893044
0.148444 0.249079 -0.89337
0.150099 0.249444 -0.894173
0.151762 0.249803 -0.894973
0.153054 0.249664 -0.895388
0.154731 0.250023 -0.896151
0.156424 0.250397 -0.896846
0.15813 0.250784 -0.897449
0.159481 0.250695 -0.897745
0.160837 0.250622 -0.898034
0.162186 0.250562 -0.898339
0.163941 0.250946 -0.8988
0.16529 0.250889 -0.899113
0.166611 0.250831 -0.89947
0.168342 0.251173 -0.900088
0.170087 0.251511 -0.900775
0.1713 0.251413 -0.901291
0.172982 0.251716 -0.902148
0.174603 0.251994 -0.903142
0.176648 0.252632 -0.904816
0.178068 0.252831 -0.906113
0.180436 0.253789 -0.908731
0.0460548 0.263631 -0.949992
0.047747 0.264275 -0.95151
0.0491739 0.264169 -0.952083
0.0507806 0.26456 -0.952485
0.0522754 0.264543 -0.9526
0.0537584 0.264568 -0.95253
0.0552775 0.264129 -0.952218
0.0567419 0.264218 -0.951884
0.0582978 0.263822 -0.951251
0.0596786 0.263967 -0.950835
0.0612 0.263618 -0.950028
0.0626883 0.263305 -0.9491
0.0641087 0.263048 -0.94805
0.0654908 0.262824 -0.946956
0.0670523 0.262098 -0.945208
0.068322 0.261964 -0.944001
0.0695577 0.261856 -0.942791
0.0711245 0.26077 -0.940096
0.0800585 0.256797 -0.924876
0.0815237 0.25579 -0.922086
0.0827469 0.255279 -0.920031
0.0839741 0.254759 -0.917988
0.0851907 0.254239 -0.915944
0.0863834 0.253726 -0.913887
0.0875275 0.253236 -0.911793
0.0889929 0.252234 -0.909027
0.0902331 0.251684 -0.907022
0.0912256 0.251586 -0.905701
0.0929046 0.250474 -0.903237
0.094009 0.250316 -0.901984
0.0952309 0.2501 -0.90083
0.0965262 0.24985 -0.89975
0.0981696 0.249009 -0.89855
0.0993487 0.249182 -0.898051
0.100622 0.249335 -0.89761
0.102089 0.248905 -0.897052
0.103461 0.248988 -0.8968
0.104874 0.249049 -0.896619
0.106281 0.248535 -0.896345
0.107693 0.248544 -0.896315
0.109113 0.248548 -0.896302
0.110539 0.248536 -0.896336
0.111966 0.248523 -0.896378
0.113492 0.249058 -0.896579
0.114916 0.249055 -0.896588
0.116337 0.249069 -0.896542
0.117692 0.248544 -0.896309
0.119112 0.248589 -0.896167
0.120513 0.248657 -0.895962
0.121907 0.248198 -0.895508
0.12328 0.248301 -0.895194
0.124622 0.248422 -0.894848
0.126013 0.248007 -0.894221
0.127388 0.247627 -0.893501
0.12866 0.247801 -0.893028
0.12995 0.247978 -0.892588
0.131309 0.247587 -0.891862
0.132677 0.247172 -0.891225
0.13403 0.246741 -0.890658
0.135371 0.246831 -0.890403
0.136747 0.246894 -0.890223
0.138147 0.24693 -0.890126
0.139556 0.246924 -0.890143
0.140952 0.24688 -0.890261
0.142325 0.246825 -0.890425
0.143981 0.247262 -0.890985
0.145638 0.247638 -0.891728
0.147313 0.248006 -0.892493
0.148604 0.247846 -0.892902
0.14985 0.247695 -0.893366
0.151519 0.248039 -0.894169
0.153184 0.248371 -0.894985
0.154436 0.248245 -0.895483
0.15613 0.248594 -0.896225
0.157838 0.248943 -0.896901
0.159561 0.249304 -0.897475
0.160904 0.249238 -0.897794
0.162236 0.249176 -0.898142
0.163568 0.249126 -0.898497
0.165325 0.249479 -0.898988
0.166648 0.249431 -0.899345
0.168389 0.249761 -0.899955
0.170142 0.250087 -0.900641
0.171365 0.250009 -0.901148
0.173082 0.250317 -0.901954
0.174736 0.250602 -0.902924
0.176304 0.250859 -0.904027
0.17828 0.251458 -0.905841
0.179648 0.251651 -0.907176
0.181483 0.252201 -0.909177
0.0459729 0.26182 -0.949138
0.0476237 0.262401 -0.950945
0.0492022 0.262713 -0.951741
0.0507863 0.2631 -0.952161
0.0522196 0.262652 -0.952074
0.0537279 0.262681 -0.951941
0.0552796 0.262263 -0.951509
0.056732 0.262364 -0.951097
0.058312 0.261976 -0.950419
0.0596571 0.262132 -0.949959
0.0611698 0.261801 -0.949094
0.0626094 0.261532 -0.94807
0.0639929 0.261304 -0.946972
0.0655478 0.260607 -0.945205
0.0667967 0.260477 -0.943977
0.0682225 0.259871 -0.942049
0.0696136 0.259287 -0.940084
0.0709185 0.258769 -0.938043
0.0787206 0.255229 -0.924987
0.0800027 0.25469 -0.922972
0.081268 0.254157 -0.920949
0.0825311 0.25362 -0.918931
0.0837685 0.253094 -0.9169
0.0849818 0.252575 -0.914855
0.0864327 0.251582 -0.912067
0.087657 0.251052 -0.910039
0.0886092 0.250993 -0.908716
0.0902112 0.249924 -0.906094
0.0912625 0.249795 -0.904818
0.0926341 0.249175 -0.90294
0.0940895 0.248512 -0.901221
0.095007 0.248782 -0.900505
0.0966411 0.248007 -0.899112
0.09801 0.247698 -0.898231
0.0992016 0.247859 -0.897706
0.100658 0.247482 -0.897038
0.101989 0.247587 -0.896682
0.10344 0.247148 -0.896239
0.104829 0.247193 -0.89608
0.10624 0.247227 -0.895966
0.107664 0.247244 -0.89591
0.109093 0.247245 -0.895911
0.110523 0.247237 -0.895936
0.111952 0.247226 -0.895971
0.113381 0.24722 -0.89599
0.114808 0.247222 -0.895984
0.116233 0.247232 -0.895953
0.117651 0.247261 -0.895866
0.119028 0.246767 -0.895543
0.120435 0.246836 -0.895328
0.121826 0.246915 -0.89508
0.123184 0.247011 -0.894784
0.124506 0.247127 -0.894442
0.125889 0.246728 -0.89381
0.127261 0.246357 -0.893102
0.128527 0.246517 -0.892612
0.129889 0.246153 -0.891875
0.131263 0.245774 -0.891206
0.132622 0.245397 -0.890565
0.133936 0.245499 -0.890212
0.135297 0.245584 -0.889925
0.136697 0.245651 -0.889702
0.138133 0.245683 -0.889585
0.139583 0.245682 -0.889587
0.141014 0.245645 -0.889705
0.142415 0.245586 -0.889911
0.143764 0.24551 -0.890208
0.145061 0.24543 -0.890577
0.14669 0.245752 -0.89136
0.148331 0.246068 -0.892186
0.149986 0.246386 -0.893013
0.15165 0.246702 -0.893838
0.153314 0.247012 -0.894655
0.154532 0.246906 -0.895195
0.156216 0.247222 -0.895971
0.157909 0.247543 -0.896687
0.159205 0.247478 -0.897104
0.16095 0.247816 -0.89765
0.162271 0.247767 -0.898017
0.163588 0.247722 -0.898405
0.165353 0.248057 -0.898893
0.166672 0.248018 -0.899264
0.168417 0.248335 -0.899872
0.170182 0.248651 -0.900542
0.171409 0.248591 -0.90105
0.172606 0.248531 -0.901532
0.174839 0.249186 -0.902753
0.17589 0.24909 -0.903367
0.177935 0.249694 -0.905034
0.179837 0.250262 -0.906953
0.181715 0.250824 -0.908917
0.183505 0.251359 -0.910988
0.0458628 0.260005 -0.948491
0.0475174 0.260549 -0.950461
0.0492047 0.261232 -0.951422
0.0506766 0.260783 -0.951594
0.052212 0.260769 -0.951595
0.0537298 0.260797 -0.951407
0.0552078 0.260859 -0.951078
0.0567817 0.260492 -0.950425
0.0583872 0.260123 -0.949655
0.0596735 0.260281 -0.949128
0.0608785 0.26051 -0.948555
0.0625828 0.259725 -0.947119
0.064172 0.25904 -0.945357
0.0653861 0.258908 -0.944082
0.0665512 0.258818 -0.942802
0.0682145 0.257732 -0.94017
0.0693238 0.257683 -0.938878
0.0773117 0.253707 -0.925042
0.078633 0.253145 -0.923058
0.0797102 0.253097 -0.921796
0.0812506 0.252029 -0.919082
0.082528 0.251489 -0.917073
0.0837849 0.250957 -0.915055
0.0850028 0.250443 -0.913013
0.0862477 0.249907 -0.910997
0.0875118 0.249355 -0.909001
0.0888176 0.248779 -0.907049
0.0898682 0.248654 -0.905772
0.0912563 0.248029 -0.9039
0.0926789 0.247392 -0.902113
0.0938716 0.247182 -0.900938
0.0951318 0.246941 -0.899831
0.0967615 0.246195 -0.89852
0.0978685 0.246353 -0.897943
0.0992882 0.246019 -0.897173
0.100551 0.246136 -0.896724
0.102018 0.245737 -0.8962
0.103373 0.245809 -0.895928
0.104773 0.245863 -0.89574
0.106182 0.245385 -0.895455
0.107582 0.245404 -0.89537
0.108997 0.245414 -0.89533
0.110418 0.245411 -0.895336
0.111841 0.245407 -0.895344
0.11327 0.245396 -0.895371
0.114699 0.245395 -0.89537
0.116128 0.245407 -0.895332
0.117553 0.245441 -0.895231
0.118969 0.245486 -0.895095
0.120371 0.245541 -0.894917
0.121748 0.245612 -0.894683
0.123151 0.245175 -0.894226
0.124489 0.245275 -0.893878
0.125885 0.244894 -0.893264
0.127155 0.245028 -0.892772
0.128523 0.24468 -0.892048
0.129896 0.244332 -0.891362
0.131157 0.244455 -0.890846
0.132535 0.244093 -0.890232
0.13386 0.244174 -0.889857
0.135242 0.244238 -0.889557
0.136599 0.243817 -0.889289
0.137993 0.243846 -0.889137
0.1394 0.243852 -0.889108
0.140804 0.243847 -0.889158
0.142172 0.243828 -0.889358
0.143847 0.244163 -0.889879
0.145142 0.244105 -0.890289
0.146795 0.244409 -0.891058
0.148436 0.244704 -0.891915
0.150082 0.244996 -0.892785
0.151261 0.244925 -0.893353
0.153415 0.245595 -0.894442
0.1546 0.245514 -0.895011
0.155813 0.245459 -0.895567
0.157512 0.245754 -0.896345
0.159239 0.246064 -0.896996
0.160984 0.246385 -0.89755
0.162295 0.246344 -0.897938
0.163603 0.246309 -0.898341
0.165368 0.246625 -0.898843
0.167143 0.24694 -0.899369
0.168438 0.246902 -0.899812
0.170207 0.247208 -0.900467
0.171456 0.247167 -0.900943
0.17265 0.247118 -0.901441
0.174926 0.247756 -0.902601
0.175982 0.247682 -0.903228
0.178056 0.248278 -0.90487
0.17947 0.248506 -0.90616
0.181921 0.249417 -0.90868
0.183252 0.249622 -0.910045
0.185035 0.25015 -0.912127
0.0458905 0.258529 -0.948403
0.0475522 0.259061 -0.95033
0.0491364 0.259347 -0.951137
0.0506543 0.259706 -0.951428
0.0522016 0.259314 -0.951343
0.053697 0.259341 -0.951129
0.0551388 0.259406 -0.950762
0.0566801 0.259068 -0.950094
0.0582367 0.258731 -0.949294
0.0594699 0.258903 -0.948736
0.0609317 0.25862 -0.94779
0.0626133 0.257899 -0.946228
0.0641524 0.25727 -0.944379
0.0652847 0.257156 -0.943041
0.0666636 0.256601 -0.941052
0.0680329 0.256044 -0.939059
0.0692912 0.255553 -0.936989
0.0705665 0.255047 -0.934942
0.0758521 0.252224 -0.925053
0.0772307 0.251624 -0.923117
0.0783265 0.251567 -0.921868
0.0798991 0.250484 -0.919183
0.0809887 0.250416 -0.917936
0.0825069 0.24938 -0.915208
0.0835324 0.24933 -0.913926
0.0847756 0.248798 -0.911903
0.0863268 0.247755 -0.909229
0.0873685 0.24766 -0.907959
0.0887484 0.247046 -0.906079
0.0898568 0.246892 -0.904848
0.0912787 0.246258 -0.903034
0.0924316 0.246065 -0.901812
0.0936506 0.24584 -0.900637
0.0952826 0.245121 -0.899219
0.0966233 0.24484 -0.898279
0.0977303 0.244986 -0.897672
0.0991838 0.244653 -0.896922
0.100646 0.244287 -0.896319
0.101943 0.244378 -0.895936
0.103393 0.243962 -0.895512
0.104749 0.24402 -0.895268
0.106137 0.244065 -0.895089
0.10755 0.244093 -0.894986
0.108973 0.244105 -0.894947
0.1104 0.244107 -0.894942
0.111826 0.244108 -0.89494
0.113252 0.244107 -0.894945
0.114677 0.24411 -0.894934
0.116099 0.244126 -0.894883
0.117516 0.244152 -0.894797
0.118925 0.244182 -0.894693
0.120318 0.244222 -0.89455
0.121707 0.243766 -0.894185
0.123078 0.24384 -0.89391
0.124401 0.243934 -0.893545
0.125798 0.24355 -0.892975
0.127069 0.243658 -0.892494
0.128439 0.24331 -0.89179
0.129815 0.242981 -0.891104
0.131191 0.242663 -0.890469
0.132476 0.242724 -0.890016
0.133813 0.242771 -0.889626
0.1352 0.242423 -0.889293
0.136581 0.242444 -0.889093
0.137989 0.242455 -0.888973
0.139407 0.242456 -0.88896
0.140818 0.242451 -0.88903
0.142191 0.242445 -0.889238
0.143892 0.242739 -0.889715
0.145173 0.242719 -0.890186
0.146835 0.243 -0.890951
0.148476 0.24328 -0.891822
0.150122 0.243564 -0.8927
0.151284 0.243529 -0.893294
0.152965 0.243811 -0.894095
0.154639 0.244096 -0.894916
0.156311 0.244383 -0.895719
0.157528 0.244344 -0.896292
0.159256 0.244638 -0.896945
0.160997 0.244938 -0.897514
0.16231 0.244914 -0.897891
0.163617 0.244891 -0.898293
0.165386 0.245192 -0.898788
0.166695 0.24517 -0.899184
0.168456 0.245468 -0.899757
0.170231 0.245768 -0.900396
0.171484 0.245734 -0.900881
0.172684 0.245699 -0.901373
0.174393 0.245984 -0.902186
0.176046 0.246259 -0.903128
0.178143 0.246847 -0.904752
0.17958 0.247086 -0.906024
0.181509 0.247646 -0.907922
0.182869 0.247868 -0.909253
0.185294 0.248757 -0.911828
0.187037 0.249278 -0.913967
0.0458918 0.257046 -0.948558
0.0476251 0.257884 -0.950368
0.0491275 0.258188 -0.951077
0.0506796 0.257823 -0.951275
0.0521139 0.258203 -0.951238
0.053811 0.257479 -0.950843
0.0552504 0.257505 -0.950451
0.0565754 0.25761 -0.949823
0.0581211 0.257294 -0.949042
0.0592929 0.257459 -0.948426
0.0610631 0.256729 -0.947096
0.0623597 0.256529 -0.945905
0.063856 0.255926 -0.944047
0.0652226 0.255382 -0.942042
0.0665887 0.254836 -0.940044
0.0678321 0.25435 -0.937961
0.0690596 0.253867 -0.935885
0.0729871 0.251669 -0.927934
0.0745051 0.25067 -0.925148
0.0755835 0.250611 -0.9239
0.0769349 0.250038 -0.921935
0.0782882 0.249457 -0.919981
0.079393 0.249379 -0.918743
0.0809707 0.248302 -0.916071
0.0820206 0.248241 -0.914801
0.0835465 0.247208 -0.912089
0.0848136 0.246668 -0.910093
0.085873 0.246565 -0.908831
0.0872577 0.245949 -0.906943
0.088368 0.245798 -0.905705
0.0898258 0.245142 -0.903907
0.0909874 0.244946 -0.902692
0.0925248 0.244273 -0.901057
0.0938084 0.244021 -0.899993
0.0951391 0.243749 -0.898996
0.0965056 0.243461 -0.898071
0.097619 0.243597 -0.897452
0.0990931 0.243267 -0.896711
0.100564 0.242916 -0.896084
0.102013 0.242543 -0.895559
0.103326 0.242614 -0.895217
0.104689 0.242676 -0.89495
0.106087 0.242731 -0.894747
0.107514 0.242759 -0.894656
0.108942 0.242783 -0.894587
0.110374 0.242795 -0.894558
0.111807 0.242801 -0.894544
0.113234 0.242806 -0.894529
0.114658 0.242813 -0.894507
0.116076 0.242827 -0.894461
0.117419 0.242317 -0.894255
0.11884 0.242348 -0.894157
0.120254 0.242382 -0.894036
0.121651 0.242427 -0.893863
0.123061 0.242011 -0.893489
0.12442 0.24209 -0.893151
0.125727 0.242176 -0.892712
0.127114 0.241835 -0.892097
0.128507 0.241521 -0.891471
0.129763 0.241586 -0.890936
0.131151 0.241281 -0.890353
0.132446 0.241314 -0.889891
0.133791 0.241329 -0.8895
0.135182 0.241037 -0.889193
0.136575 0.241038 -0.889042
0.137989 0.241036 -0.888962
0.139204 0.240809 -0.888987
0.14081 0.241042 -0.889086
0.142181 0.241055 -0.889287
0.143878 0.241298 -0.889773
0.145151 0.241322 -0.890246
0.146821 0.241578 -0.890989
0.148471 0.241847 -0.891835
0.150108 0.242119 -0.892735
0.151274 0.242122 -0.89332
0.152945 0.242391 -0.894141
0.154633 0.242665 -0.894933
0.155834 0.242649 -0.895512
0.157533 0.242924 -0.896279
0.15926 0.243209 -0.896933
0.161 0.243499 -0.897503
0.162314 0.243482 -0.897879
0.163627 0.243465 -0.898258
0.165398 0.243759 -0.898749
0.16671 0.243742 -0.899137
0.168475 0.244033 -0.899702
0.169753 0.244012 -0.900145
0.171511 0.244299 -0.900821
0.17271 0.244274 -0.901321
0.174431 0.244554 -0.902117
0.176079 0.244827 -0.903077
0.177613 0.245089 -0.904211
0.179641 0.245651 -0.905949
0.181599 0.246209 -0.907815
0.182994 0.246445 -0.909112
0.184946 0.247002 -0.910999
0.186847 0.247554 -0.912947
0.18872 0.248101 -0.914938
0.190555 0.248632 -0.916987
0.0460107 0.255791 -0.948934
0.047604 0.256346 -0.950484
0.0491141 0.25665 -0.951103
0.0506112 0.256651 -0.951293
0.0523294 0.255982 -0.951173
0.0536514 0.256344 -0.950884
0.0552374 0.256021 -0.95033
0.0568366 0.255697 -0.949534
0.0580329 0.255817 -0.948878
0.0595004 0.255542 -0.947924
0.0608799 0.255301 -0.94685
0.0624849 0.254666 -0.945124
0.0635584 0.254558 -0.94376
0.0652266 0.253579 -0.941098
0.0665186 0.253071 -0.939041
0.0679838 0.252174 -0.936158
0.069129 0.251729 -0.934027
0.0704605 0.250884 -0.931073
0.0715929 0.250449 -0.928943
0.0730232 0.249533 -0.926077
0.0742782 0.249027 -0.924034
0.075614 0.248469 -0.922059
0.076962 0.2479 -0.920101
0.0780592 0.247815 -0.918857
0.0794207 0.247229 -0.916918
0.0807539 0.246657 -0.914961
0.0820605 0.246099 -0.912986
0.0833354 0.245558 -0.910988
0.084643 0.244996 -0.909026
0.0860224 0.244396 -0.907141
0.0871528 0.244236 -0.90593
0.0886344 0.243589 -0.904182
0.0898132 0.243393 -0.903004
0.0910446 0.243164 -0.901869
0.0923129 0.242917 -0.90077
0.094001 0.242218 -0.89944
0.0953401 0.241946 -0.898504
0.096394 0.242072 -0.897871
0.0978105 0.241768 -0.897044
0.0992482 0.241444 -0.896327
0.10048 0.241535 -0.895857
0.101941 0.241179 -0.895296
0.103257 0.241251 -0.89494
0.104621 0.241321 -0.89464
0.106029 0.241377 -0.894432
0.107454 0.240923 -0.894178
0.108863 0.240945 -0.894085
0.11028 0.240965 -0.894011
0.111703 0.240974 -0.893981
0.113126 0.24098 -0.893958
0.114549 0.240986 -0.893939
0.115972 0.240995 -0.893905
0.117392 0.241008 -0.893856
0.118807 0.241034 -0.893755
0.120214 0.241048 -0.893681
0.121602 0.2406 -0.893447
0.123001 0.240655 -0.89322
0.124358 0.240717 -0.892889
0.125678 0.24077 -0.892484
0.127061 0.240438 -0.891909
0.128456 0.240135 -0.891331
0.129734 0.240167 -0.890823
0.131133 0.239886 -0.89031
0.132443 0.239888 -0.88987
0.133802 0.239874 -0.889512
0.135184 0.239638 -0.889252
0.13658 0.239631 -0.889125
0.137988 0.239629 -0.889079
0.139395 0.239635 -0.889125
0.140784 0.239652 -0.889263
0.142137 0.239681 -0.889503
0.143822 0.239887 -0.889978
0.14508 0.239944 -0.890451
0.146748 0.240178 -0.891179
0.148401 0.240429 -0.892003
0.150057 0.240688 -0.892848
0.151222 0.240724 -0.893446
0.153421 0.241222 -0.894445
0.1546 0.241238 -0.895012
0.155809 0.24124 -0.895585
0.157525 0.241502 -0.896305
0.159254 0.241778 -0.896952
0.160996 0.242064 -0.897514
0.162317 0.242052 -0.89787
0.163636 0.242037 -0.898228
0.164959 0.242021 -0.898586
0.166724 0.242312 -0.899094
0.168498 0.242603 -0.899632
0.169777 0.242581 -0.900082
0.171534 0.242866 -0.900771
0.172731 0.242842 -0.901278
0.174448 0.243121 -0.902085
0.17609 0.243391 -0.903059
0.177631 0.243655 -0.904186
0.17967 0.244208 -0.905912
0.181056 0.244456 -0.907224
0.183066 0.245008 -0.909029
0.184491 0.245246 -0.910307
0.186491 0.245799 -0.91214
0.187955 0.246015 -0.9134
0.190448 0.246936 -0.915844
0.19238 0.247513 -0.917763
0.193864 0.247693 -0.919039
0.0459904 0.254298 -0.949314
0.0476028 0.254814 -0.950714
0.0491091 0.255111 -0.951269
0.0506087 0.255114 -0.951378
0.0520831 0.255133 -0.951263
0.0536445 0.254829 -0.950869
0.0552322 0.254512 -0.950275
0.056811 0.254203 -0.949448
0.0579266 0.254344 -0.948707
0.0593679 0.25408 -0.947737
0.0610922 0.253414 -0.946189
0.0626131 0.252816 -0.944303
0.0636529 0.252711 -0.942921
0.0652414 0.251778 -0.940154
0.0664446 0.251309 -0.938036
0.0675544 0.250886 -0.935879
0.0692059 0.249605 -0.932165
0.0702734 0.249189 -0.930002
0.0716848 0.2483 -0.927116
0.072878 0.247829 -0.925028
0.0744221 0.246846 -0.922271
0.0754371 0.246792 -0.920981
0.0768051 0.246215 -0.919038
0.0781636 0.245641 -0.917094
0.0795489 0.245053 -0.91518
0.080594 0.244967 -0.913899
0.0818982 0.244413 -0.911922
0.0831837 0.243867 -0.909934
0.0845435 0.243284 -0.90802
0.0859442 0.242685 -0.906167
0.0870996 0.242502 -0.904972
0.0886433 0.241853 -0.903323
0.0895405 0.242056 -0.902669
0.0911831 0.241374 -0.901186
0.0925177 0.241109 -0.900196
0.093868 0.24084 -0.899245
0.0952438 0.240559 -0.89835
0.0963005 0.240665 -0.897706
0.097724 0.240368 -0.896875
0.0991665 0.240059 -0.896134
0.100606 0.239735 -0.89548
0.101862 0.239804 -0.895043
0.10318 0.239878 -0.894666
0.104541 0.239954 -0.894327
0.106004 0.239547 -0.893985
0.107405 0.239586 -0.893816
0.1088 0.23914 -0.893564
0.110246 0.239644 -0.893611
0.111606 0.23917 -0.893394
0.113019 0.239182 -0.893345
0.114438 0.239191 -0.893316
0.115858 0.239201 -0.89329
0.117283 0.239204 -0.893284
0.118708 0.239216 -0.893256
0.120132 0.239235 -0.89319
0.121549 0.239257 -0.893097
0.122949 0.239287 -0.892931
0.124315 0.239321 -0.892647
0.12564 0.239349 -0.892258
0.127029 0.23902 -0.891769
0.12843 0.238738 -0.89127
0.129738 0.238737 -0.890817
0.131136 0.238492 -0.890364
0.132469 0.238471 -0.889984
0.133838 0.238438 -0.889666
0.135258 0.238401 -0.889459
0.136587 0.23826 -0.889388
0.137979 0.238263 -0.889378
0.139617 0.238379 -0.88944
0.141037 0.238412 -0.889648
0.142409 0.238463 -0.88995
0.143714 0.238537 -0.890364
0.144962 0.238611 -0.89081
0.146624 0.238821 -0.891517
0.148785 0.239212 -0.892469
0.149965 0.239282 -0.893062
0.151156 0.239331 -0.893624
0.153361 0.239787 -0.894567
0.154561 0.239816 -0.895109
0.156261 0.240077 -0.895847
0.157511 0.240078 -0.89635
0.159238 0.240348 -0.897
0.160994 0.24063 -0.897515
0.162322 0.240621 -0.897852
0.163646 0.240607 -0.898201
0.164971 0.240589 -0.898551
0.166747 0.240882 -0.899021
0.168054 0.240863 -0.899399
0.169807 0.241151 -0.900001
0.171559 0.241433 -0.900716
0.172746 0.241408 -0.901245
0.174455 0.241684 -0.902072
0.17608 0.241953 -0.903073
0.177616 0.242217 -0.904206
0.17965 0.242761 -0.905936
0.181652 0.24331 -0.907748
0.183092 0.243563 -0.908998
0.184543 0.243806 -0.910255
0.186606 0.244368 -0.911993
0.188109 0.244596 -0.913205
0.190169 0.245184 -0.914944
0.191687 0.245391 -0.91617
0.193214 0.245563 -0.917414
0.195247 0.246172 -0.919176
0.0476194 0.253302 -0.951039
0.0491208 0.25358 -0.951478
0.0506261 0.253586 -0.951556
0.0522332 0.253277 -0.951312
0.0536521 0.253309 -0.950914
0.0552159 0.253006 -0.950197
0.0567442 0.252709 -0.949294
0.0578497 0.252867 -0.948594
0.0592378 0.25263 -0.947582
0.060906 0.25198 -0.945973
0.0623844 0.251405 -0.944074
0.0636964 0.250895 -0.942018
0.0649132 0.250426 -0.939911
0.0663587 0.249556 -0.937024
0.0677193 0.248719 -0.934075
0.0687922 0.248307 -0.931911
0.0701566 0.24746 -0.928975
0.0715839 0.246571 -0.9261
0.0727804 0.2461 -0.924014
0.0740293 0.245601 -0.921966
0.0756484 0.244587 -0.919289
0.0766844 0.244508 -0.918006
0.0780635 0.243929 -0.916081
0.0791385 0.243818 -0.914823
0.0808131 0.242778 -0.912242
0.0818242 0.242681 -0.910935
0.0831417 0.242125 -0.908978
0.0844969 0.241555 -0.907067
0.0856223 0.241377 -0.905839
0.0871475 0.240742 -0.904133
0.0883919 0.24051 -0.903025
0.0896866 0.240257 -0.901968
0.0910222 0.23999 -0.900966
0.0923944 0.239714 -0.900022
0.09378 0.239437 -0.899112
0.0951549 0.239159 -0.898198
0.0962173 0.239241 -0.89756
0.097646 0.238951 -0.896725
0.0990847 0.238658 -0.895953
0.100536 0.238349 -0.895283
0.101778 0.238415 -0.894805
0.103083 0.238487 -0.894376
0.104555 0.238138 -0.893891
0.105995 0.23776 -0.893522
0.107363 0.237793 -0.893311
0.108754 0.23782 -0.893153
0.110159 0.237847 -0.893028
0.111572 0.237873 -0.892914
0.112995 0.237886 -0.892863
0.114418 0.23789 -0.892841
0.115842 0.237891 -0.892833
0.117264 0.23789 -0.892826
0.118685 0.237886 -0.892833
0.120103 0.237883 -0.892827
0.121515 0.237889 -0.89276
0.122913 0.237896 -0.892637
0.124284 0.237904 -0.892406
0.125677 0.237584 -0.892066
0.127025 0.237586 -0.891722
0.128431 0.237332 -0.891313
0.129762 0.237314 -0.890906
0.131163 0.237111 -0.890544
0.13251 0.23708 -0.890213
0.133887 0.23705 -0.889971
0.135292 0.237024 -0.889806
0.13672 0.237004 -0.889715
0.138155 0.237008 -0.889746
0.139578 0.237024 -0.889848
0.140963 0.237074 -0.890105
0.142302 0.237139 -0.890438
0.144004 0.237303 -0.890909
0.145261 0.237398 -0.891406
0.146946 0.237604 -0.892096
0.148659 0.237818 -0.892767
0.149858 0.237894 -0.893336
0.151573 0.238122 -0.894027
0.153301 0.238366 -0.894693
0.154523 0.238394 -0.895218
0.156234 0.238651 -0.895915
0.157952 0.23892 -0.896566
0.159228 0.238918 -0.89703
0.160993 0.2392 -0.897508
0.162323 0.239192 -0.897842
0.163659 0.239176 -0.898162
0.164999 0.239156 -0.898475
0.166773 0.239455 -0.898938
0.168079 0.239431 -0.899322
0.169832 0.239722 -0.899935
0.171576 0.240001 -0.90068
0.172751 0.239972 -0.901233
0.174447 0.240247 -0.902083
0.176056 0.240513 -0.90311
0.178166 0.241056 -0.904718
0.179616 0.241316 -0.905978
0.181021 0.241568 -0.907272
0.183083 0.242114 -0.90901
0.18456 0.242355 -0.91024
