ply
format ascii 1.0
comment Created by CloudCompare v2.10.1 (Zephyrus)
comment Created 2020-05-17 12:56 AM
obj_info Generated by CloudCompare!
element vertex 456
property float x
property float y
property float z
property uchar red
property uchar green
property uchar blue
end_header
-16 -67 400 226 168 146 
-15 -67 400 233 178 157 
-15 -67 399 240 185 164 
-14 -67 399 240 188 167 
-13 -67 398 242 190 169 
-13 -67 398 243 195 175 
-18 -67 401 204 146 122 
-17 -67 401 215 157 133 
-17 -67 400 222 165 145 
-16 -67 400 229 172 152 
-15 -67 399 232 180 158 
-15 -67 399 232 180 158 
-14 -66 398 229 178 157 
-13 -66 397 229 178 157 
-13 -66 396 233 185 165 
-12 -66 396 240 192 172 
-11 -66 396 243 196 178 
-11 -66 396 253 206 188 
-10 -66 397 254 208 192 
-10 -66 397 253 207 191 
-9 -66 397 250 203 195 
-19 -66 402 183 127 104 
-19 -66 402 198 142 119 
-18 -66 401 211 156 135 
-17 -66 400 217 162 141 
-17 -66 399 220 165 145 
-16 -66 399 222 167 147 
-15 -66 398 220 167 149 
-15 -66 397 218 165 147 
-14 -65 396 216 165 146 
-13 -65 395 214 163 144 
-13 -65 394 206 158 138 
-12 -65 393 210 162 142 
-11 -65 393 223 176 158 
-11 -65 393 241 194 176 
-10 -65 394 245 198 182 
-9 -65 394 252 205 189 
-9 -65 394 254 205 198 
-20 -66 402 190 169 164 
-19 -66 401 203 150 132 
-19 -65 400 209 156 138 
-18 -65 399 213 160 142 
-17 -65 399 216 163 145 
-17 -65 398 212 159 143 
-16 -65 397 204 151 135 
-15 -65 395 204 151 135 
-15 -65 394 205 152 136 
-14 -64 392 205 154 137 
-13 -64 391 202 151 134 
-13 -64 390 186 135 118 
-12 -64 390 191 140 123 
-11 -64 390 209 160 145 
-11 -64 390 224 175 160 
-10 -64 390 222 173 158 
-9 -64 391 235 186 171 
-9 -64 391 255 205 196 
-8 -64 391 255 209 200 
-8 -64 391 249 211 200 
-20 -65 400 207 173 163 
-19 -65 399 207 154 140 
-19 -65 398 207 154 140 
-18 -64 397 209 156 142 
-17 -64 396 210 157 143 
-17 -64 394 206 153 137 
-16 -64 392 200 147 131 
-15 -63 390 203 150 136 
-14 -63 388 206 153 139 
-14 -63 386 196 143 129 
-13 -63 386 189 136 122 
-12 -62 385 180 127 113 
-12 -62 385 197 144 130 
-11 -62 385 210 154 141 
-11 -63 386 215 159 146 
-10 -62 385 214 158 143 
-9 -63 386 222 166 151 
-9 -63 386 243 190 176 
-8 -63 387 254 201 187 
-7 -63 387 253 211 197 
-7 -63 388 255 213 199 
-20 -64 397 203 155 141 
-19 -64 396 199 145 133 
-19 -63 395 201 147 135 
-18 -63 394 204 151 137 
-17 -63 392 205 152 138 
-16 -62 389 204 151 135 
-16 -62 386 205 152 136 
-15 -62 384 211 155 140 
-14 -61 382 210 154 139 
-14 -61 381 197 141 126 
-13 -61 381 179 123 108 
-12 -61 381 184 126 112 
-12 -61 381 211 153 139 
-11 -61 382 204 146 132 
-10 -61 382 205 147 133 
-10 -61 382 210 153 136 
-9 -61 382 211 154 137 
-9 -61 383 216 160 145 
-8 -62 384 237 181 166 
-7 -62 385 254 208 193 
-7 -62 386 255 214 199 
-21 -63 396 209 178 158 
-20 -63 395 206 155 138 
-20 -63 394 196 145 128 
-19 -62 393 204 152 131 
-18 -62 391 202 150 129 
-18 -62 389 204 152 131 
-17 -61 386 207 155 134 
-16 -61 383 205 149 134 
-15 -61 381 209 153 138 
-15 -60 379 213 159 147 
-14 -60 378 200 146 134 
-13 -60 378 176 122 112 
-13 -60 378 166 112 102 
-12 -60 378 209 153 140 
-12 -60 378 214 158 145 
-11 -60 379 210 152 138 
-10 -60 379 210 152 138 
-10 -60 379 206 150 135 
-9 -60 379 204 148 133 
-9 -60 380 209 151 137 
-8 -60 380 217 159 145 
-7 -61 382 231 185 170 
-7 -61 384 255 216 201 
-6 -61 386 255 225 210 
-6 -61 386 255 223 208 
-21 -62 394 202 165 146 
-20 -62 393 197 144 126 
-20 -62 392 192 139 121 
-19 -61 390 196 141 120 
-18 -61 387 201 146 125 
-17 -60 383 203 148 128 
-17 -60 381 208 153 133 
-16 -60 379 210 154 139 
-15 -59 378 213 157 142 
-15 -59 376 213 156 145 
-14 -59 376 193 136 125 
-13 -59 376 161 104 95 
-13 -59 376 183 126 117 
-12 -59 376 219 162 151 
-12 -59 377 222 165 154 
-11 -59 377 218 160 148 
-10 -59 377 213 155 143 
-10 -59 377 204 148 135 
-9 -59 377 199 143 130 
-8 -59 377 206 147 131 
-8 -59 378 209 150 134 
-7 -60 380 214 167 151 
-7 -60 382 243 196 180 
-6 -60 384 254 216 203 
-6 -61 385 255 223 210 
-21 -61 393 195 148 132 
-20 -61 392 190 138 117 
-20 -61 390 192 140 119 
-19 -60 387 193 136 116 
-18 -60 383 198 141 121 
-17 -59 380 203 146 127 
-16 -59 378 208 151 132 
-16 -59 377 209 151 137 
-15 -59 376 209 151 137 
-15 -59 376 198 141 130 
-14 -59 376 167 110 99 
-13 -59 376 160 103 94 
-13 -59 376 207 150 141 
-12 -59 376 231 174 165 
-12 -59 376 231 174 165 
-11 -59 376 231 174 163 
-10 -58 375 222 165 154 
-10 -58 375 209 155 143 
-9 -58 375 196 142 130 
-8 -59 376 205 143 128 
-8 -59 377 204 142 127 
-7 -59 378 203 152 135 
-7 -59 380 226 175 158 
-6 -59 382 248 206 192 
-21 -60 392 189 137 123 
-20 -60 391 192 137 117 
-19 -60 388 197 142 122 
-19 -59 384 196 138 118 
-18 -58 379 195 137 117 
-17 -58 377 204 145 127 
-16 -58 376 208 149 131 
-16 -58 375 204 145 131 
-15 -58 375 200 141 127 
-15 -58 375 178 120 109 
-14 -58 376 149 91 80 
-13 -58 376 183 126 119 
-13 -58 376 226 169 162 
-12 -58 376 230 176 166 
-12 -58 376 231 177 167 
-11 -58 375 236 182 172 
-10 -58 375 234 180 170 
-10 -58 375 218 166 155 
-9 -58 375 200 148 137 
-8 -58 375 206 143 126 
-8 -58 376 205 142 125 
-7 -58 377 204 148 133 
-7 -58 379 215 159 144 
-6 -59 381 233 187 172 
-5 -59 383 255 216 201 
-5 -59 385 255 218 208 
-21 -60 391 185 133 119 
-20 -59 389 192 135 116 
-19 -59 386 194 137 118 
-18 -58 381 195 134 115 
-18 -57 377 195 134 115 
-17 -57 376 207 146 128 
-16 -57 375 207 146 128 
-16 -57 375 204 144 133 
-15 -57 375 191 131 120 
-15 -57 375 161 103 92 
-14 -57 375 156 98 87 
-13 -57 375 211 154 147 
-13 -57 376 231 174 167 
-12 -57 376 225 172 164 
-11 -57 375 228 175 167 
-11 -57 374 233 181 170 
-10 -57 374 238 186 175 
-10 -57 374 223 173 162 
-9 -57 374 206 156 145 
-8 -57 375 208 147 129 
-8 -57 375 207 146 128 
-7 -57 376 206 149 132 
-7 -58 378 205 148 131 
-6 -58 380 213 164 150 
-5 -58 382 250 201 187 
-5 -59 384 255 218 208 
-21 -59 390 177 128 111 
-20 -58 388 188 126 111 
-19 -58 384 189 127 112 
-18 -57 379 187 124 106 
-18 -57 376 197 134 116 
-17 -57 375 205 144 126 
-16 -56 374 204 143 125 
-16 -56 374 203 143 132 
-15 -56 374 178 118 107 
-15 -57 375 148 90 79 
-14 -57 375 174 116 105 
-13 -56 374 224 167 158 
-13 -57 375 228 171 162 
-12 -57 375 225 173 162 
-11 -56 374 229 177 166 
-11 -56 374 226 176 165 
-10 -56 373 230 180 169 
-10 -56 373 223 174 160 
-9 -56 374 211 162 148 
-8 -56 374 206 147 129 
-8 -56 374 204 145 127 
-7 -57 376 206 149 132 
-7 -57 377 201 144 127 
-6 -57 379 202 150 137 
-5 -57 381 241 189 176 
-5 -58 383 255 217 205 
-21 -58 390 186 133 115 
-21 -58 389 174 121 103 
-20 -58 387 181 119 104 
-19 -57 383 182 120 105 
-18 -56 378 185 120 100 
-18 -56 375 197 132 112 
-17 -56 374 203 140 123 
-16 -56 373 203 140 123 
-16 -56 373 192 133 119 
-15 -56 374 160 101 87 
-15 -56 375 152 92 81 
-14 -56 375 193 133 122 
-13 -56 374 223 166 155 
-13 -56 374 226 169 158 
-12 -56 374 227 175 162 
-11 -56 374 229 177 164 
-11 -56 373 221 172 157 
-10 -56 373 221 172 157 
-10 -56 373 217 168 151 
-9 -56 374 209 160 143 
-8 -56 374 203 146 126 
-8 -56 374 199 142 122 
-7 -56 375 200 143 126 
-7 -56 377 200 143 126 
-6 -57 379 197 144 130 
-5 -57 380 233 180 166 
-5 -57 383 255 215 203 
-21 -58 390 191 135 118 
-21 -57 389 174 118 101 
-20 -57 386 176 114 101 
-19 -56 381 178 116 103 
-18 -56 377 185 120 100 
-18 -55 375 192 127 107 
-17 -55 374 199 136 119 
-16 -55 373 202 139 122 
-16 -55 373 180 118 103 
-15 -55 374 150 88 73 
-14 -55 374 166 107 93 
-14 -55 374 210 151 137 
-13 -55 374 217 161 148 
-13 -55 374 225 169 156 
-12 -55 374 225 173 159 
-11 -55 373 225 173 159 
-11 -55 373 216 167 150 
-10 -55 373 212 163 146 
-10 -55 373 211 163 141 
-9 -55 373 203 155 133 
-8 -55 374 200 145 124 
-8 -55 374 194 139 118 
-7 -55 375 193 136 119 
-7 -56 377 196 139 122 
-6 -56 378 192 139 125 
-5 -56 380 225 172 158 
-5 -56 382 253 211 197 
-21 -57 389 183 133 108 
-21 -57 388 163 113 88 
-20 -56 385 171 115 92 
-19 -55 380 171 115 92 
-18 -55 377 177 114 96 
-18 -55 375 185 122 104 
-17 -55 374 190 129 110 
-16 -54 373 190 129 110 
-16 -54 373 160 99 80 
-15 -55 374 143 82 63 
-14 -55 374 191 130 112 
-14 -55 374 213 152 134 
-13 -54 373 220 161 145 
-13 -54 373 219 160 144 
-12 -54 373 221 162 146 
-11 -54 372 218 159 143 
-11 -54 372 212 153 137 
-10 -54 373 212 153 137 
-10 -54 373 208 150 136 
-9 -54 373 202 144 130 
-8 -55 374 194 137 120 
-8 -55 374 196 139 122 
-7 -55 375 191 135 118 
-7 -55 377 189 133 116 
-6 -55 378 186 137 120 
-5 -55 380 214 165 148 
-5 -56 381 254 212 196 
-20 -56 385 173 117 92 
-19 -55 380 174 118 93 
-18 -54 376 175 114 93 
-18 -54 374 169 108 87 
-17 -54 373 179 118 97 
-16 -54 373 177 116 95 
-16 -54 374 146 85 64 
-15 -54 374 152 91 70 
-14 -54 374 199 138 119 
-14 -54 374 206 145 126 
-13 -54 373 214 153 134 
-13 -54 373 215 154 135 
-12 -54 372 213 152 134 
-11 -54 372 207 146 128 
-11 -54 373 203 142 124 
-10 -54 373 204 143 125 
-10 -54 374 200 141 123 
-9 -54 374 199 140 122 
-8 -54 374 193 134 116 
-8 -54 375 195 136 118 
-7 -54 376 190 133 114 
-7 -54 377 187 130 111 
-6 -55 378 183 132 113 
-5 -55 380 216 165 146 
-5 -55 381 254 211 194 
-18 -54 376 231 171 147 
-17 -53 373 206 146 122 
-16 -53 373 173 113 89 
-16 -53 374 142 82 58 
-15 -53 374 163 103 79 
-14 -53 373 195 134 113 
-14 -53 373 202 141 120 
-13 -53 373 209 147 126 
-13 -53 372 214 152 131 
-12 -53 372 212 150 129 
-11 -53 372 202 140 119 
-11 -53 373 196 133 115 
-10 -53 374 196 133 115 
-10 -53 374 194 131 113 
-9 -53 374 194 131 113 
-8 -53 374 190 127 109 
-8 -54 375 194 131 113 
-7 -54 376 189 131 111 
-7 -54 377 186 128 108 
-6 -54 378 180 128 107 
-17 -53 373 248 188 162 
-16 -53 373 203 143 119 
-15 -53 373 194 134 110 
-14 -53 373 186 124 101 
-14 -53 373 192 130 107 
-13 -53 373 205 143 120 
-13 -52 372 201 139 116 
-12 -52 372 194 129 107 
-11 -52 372 184 119 97 
-11 -53 373 184 119 99 
-10 -53 374 189 124 104 
-10 -53 374 189 122 103 
-9 -53 374 189 122 103 
-8 -53 375 186 121 101 
-8 -53 375 190 125 105 
-7 -53 376 187 126 107 
-7 -53 377 185 124 105 
-6 -53 379 180 125 105 
-14 -52 372 224 164 140 
-14 -52 372 198 138 114 
-13 -52 372 193 131 108 
-13 -52 372 180 118 95 
-12 -52 372 176 111 89 
-11 -52 372 176 111 89 
-11 -52 373 177 111 89 
-10 -52 374 176 110 88 
-10 -52 374 179 113 91 
-9 -52 374 184 118 96 
-8 -52 375 182 115 96 
-8 -52 376 182 115 96 
-7 -52 376 177 116 97 
-7 -53 377 178 117 98 
-6 -53 379 182 127 107 
-12 -51 372 172 107 85 
-11 -51 372 176 111 89 
-11 -51 373 176 109 90 
-10 -51 373 169 102 83 
-10 -52 374 167 100 81 
-9 -52 374 174 107 88 
-8 -52 375 177 110 91 
-8 -52 376 175 108 89 
-7 -52 378 169 108 89 
-7 -52 378 173 112 93 
-6 -52 380 191 136 116 
-12 -51 372 183 121 100 
-11 -51 373 166 104 83 
-11 -51 373 167 102 82 
-10 -51 373 167 102 82 
-10 -51 374 166 99 80 
-9 -51 375 165 98 79 
-8 -51 376 171 104 85 
-8 -51 377 172 105 86 
-7 -51 378 168 107 88 
-7 -52 380 178 117 98 
-6 -52 381 206 151 131 
-10 -50 374 166 101 81 
-10 -50 375 168 101 82 
-9 -51 376 168 101 82 
-8 -51 376 165 99 77 
-8 -51 377 172 106 84 
-7 -51 379 173 112 93 
-7 -51 380 186 125 106 
-6 -51 382 220 165 145 
-10 -50 375 170 103 86 
-10 -50 376 170 101 86 
-9 -50 377 166 97 82 
-8 -50 378 163 100 82 
-8 -50 378 163 100 82 
-7 -51 380 179 118 99 
-7 -51 381 204 143 124 
-6 -51 383 222 167 147 
-9 -50 378 168 99 83 
-9 -50 379 164 101 83 
-8 -50 380 169 106 88 
-7 -50 381 188 127 108 
-7 -50 382 212 151 132 
-7 -50 382 200 139 120 
-7 -50 383 223 162 143 
