ply
format ascii 1.0
comment Created by CloudCompare v2.10.1 (Zephyrus)
comment Created 2020-05-17 12:57 AM
obj_info Generated by CloudCompare!
element vertex 440
property float x
property float y
property float z
property uchar red
property uchar green
property uchar blue
end_header
-68 31 423 81 84 57 
-67 31 423 160 139 120 
-69 31 424 66 66 40 
-68 31 423 113 113 87 
-67 31 423 163 140 122 
-69 32 422 62 75 49 
-69 32 422 72 76 49 
-68 32 422 115 119 92 
-67 32 423 173 138 119 
-66 32 422 189 154 135 
-66 32 422 202 157 138 
-65 32 422 167 122 103 
-70 33 424 68 76 52 
-69 33 422 73 81 57 
-68 33 421 77 70 44 
-68 33 422 119 112 86 
-67 33 422 198 155 136 
-66 33 422 209 166 147 
-66 33 421 210 168 144 
-65 33 421 213 171 147 
-64 33 422 198 152 129 
-64 33 422 188 142 119 
-71 33 423 84 82 59 
-70 33 421 97 90 64 
-69 33 421 91 84 58 
-68 33 421 119 93 66 
-68 33 421 164 138 111 
-67 33 421 213 163 138 
-66 33 422 222 172 147 
-66 33 421 221 177 148 
-65 33 421 216 172 143 
-64 33 422 218 158 134 
-64 33 422 200 140 116 
-71 34 423 63 46 20 
-70 34 420 95 78 52 
-70 34 420 163 134 104 
-69 34 420 169 140 110 
-68 34 420 191 148 114 
-68 34 420 204 161 127 
-67 34 421 219 166 134 
-66 34 421 221 168 136 
-66 34 421 220 174 138 
-65 34 421 224 178 142 
-64 34 422 228 166 141 
-64 34 422 209 147 122 
-63 34 422 185 132 100 
-73 35 427 88 82 50 
-72 35 423 93 87 55 
-71 35 420 124 85 56 
-70 34 419 165 126 97 
-69 34 419 195 145 110 
-69 34 419 200 150 115 
-68 34 419 214 162 123 
-67 34 419 216 164 125 
-67 35 420 213 161 122 
-66 35 421 220 168 129 
-66 35 421 223 171 134 
-65 35 421 220 168 131 
-64 35 421 227 167 141 
-64 35 422 219 159 133 
-63 35 423 189 134 103 
-63 35 423 169 114 83 
-74 36 426 68 78 43 
-73 35 423 121 98 67 
-72 35 420 153 130 99 
-71 35 419 192 141 110 
-70 35 418 202 151 120 
-69 35 418 206 150 113 
-69 35 418 217 161 124 
-68 35 418 221 168 128 
-67 35 419 219 166 126 
-67 35 419 217 168 128 
-66 35 420 216 167 127 
-66 35 421 216 160 123 
-65 35 421 218 162 125 
-64 35 421 218 158 130 
-64 35 422 221 161 133 
-63 35 423 204 149 119 
-63 36 424 166 111 81 
-75 36 426 70 65 33 
-73 36 422 129 124 92 
-72 36 420 184 140 113 
-71 36 419 185 141 114 
-71 36 418 204 149 118 
-70 36 417 207 152 121 
-69 36 417 212 160 121 
-68 36 417 211 159 120 
-68 36 418 213 155 118 
-67 36 418 216 158 121 
-67 36 419 219 161 123 
-66 36 420 219 161 123 
-65 36 420 219 157 118 
-65 36 421 215 153 114 
-64 36 421 214 149 117 
-64 36 422 208 143 111 
-63 36 423 200 143 114 
-63 36 424 170 113 84 
-76 37 430 101 98 67 
-74 37 422 158 137 106 
-73 37 420 174 153 122 
-72 36 419 198 141 114 
-71 36 418 203 146 119 
-70 36 417 211 157 123 
-70 36 416 214 160 126 
-69 36 417 206 161 122 
-68 36 417 207 162 123 
-68 36 417 216 151 119 
-67 36 418 218 153 121 
-67 36 419 221 155 120 
-66 37 420 219 153 118 
-65 37 420 217 152 110 
-65 37 421 214 149 107 
-64 37 422 215 147 110 
-64 37 423 203 135 98 
-63 37 424 180 124 97 
-63 37 424 164 108 81 
-75 38 423 188 158 132 
-73 37 419 188 148 113 
-73 37 418 185 145 110 
-72 37 417 205 157 121 
-71 37 417 207 159 123 
-70 37 416 206 156 123 
-70 37 416 212 162 129 
-69 37 417 219 163 130 
-68 37 417 214 158 125 
-68 37 418 220 155 115 
-67 37 418 220 155 115 
-67 37 419 217 149 110 
-66 37 420 215 147 108 
-66 37 421 215 150 120 
-65 37 422 211 146 116 
-65 38 423 209 144 114 
-64 38 424 196 131 101 
-63 38 424 183 117 95 
-63 38 425 164 98 76 
-76 38 423 191 157 130 
-74 38 419 188 154 127 
-73 38 417 184 139 106 
-72 38 416 199 154 121 
-72 38 416 214 161 127 
-71 38 416 214 161 127 
-70 38 416 215 162 130 
-70 38 416 211 158 126 
-69 38 417 221 162 130 
-69 38 418 216 157 125 
-68 38 418 225 157 120 
-67 38 419 225 157 120 
-67 38 420 219 149 115 
-66 38 421 212 142 108 
-66 38 422 200 135 107 
-65 38 423 191 126 98 
-65 38 424 179 114 86 
-64 38 425 173 108 80 
-64 38 425 165 103 82 
-63 39 426 155 93 72 
-76 39 422 185 152 137 
-75 39 419 191 149 124 
-74 38 417 195 153 128 
-73 38 415 196 147 115 
-72 38 416 206 157 125 
-72 38 416 218 164 130 
-71 38 416 214 160 126 
-70 38 416 213 158 128 
-70 38 417 217 162 132 
-69 38 417 220 159 130 
-69 38 418 219 158 129 
-68 39 419 221 152 119 
-68 39 420 199 130 97 
-67 39 421 173 104 73 
-66 39 422 162 93 62 
-66 39 423 151 87 62 
-65 39 424 145 81 56 
-65 39 425 144 80 55 
-64 39 426 144 80 55 
-64 39 427 140 84 67 
-77 40 426 196 157 142 
-75 39 418 187 148 133 
-74 39 416 199 153 129 
-73 39 415 201 155 131 
-73 39 415 210 159 128 
-72 39 415 218 167 136 
-72 39 416 222 168 134 
-71 39 416 220 166 132 
-70 39 417 220 165 135 
-70 39 417 222 167 137 
-69 39 418 211 151 123 
-69 39 420 182 122 94 
-68 39 421 165 98 69 
-68 39 421 151 84 55 
-67 40 423 145 80 52 
-67 40 424 144 79 51 
-66 40 425 134 76 54 
-66 40 426 133 75 53 
-65 40 427 137 76 55 
-65 40 428 136 75 54 
-64 40 428 129 82 66 
-76 40 418 197 151 136 
-75 40 416 204 158 143 
-74 39 415 211 164 138 
-73 39 415 210 163 137 
-73 39 415 222 169 138 
-72 39 415 227 174 143 
-72 40 416 229 172 142 
-71 40 417 226 169 139 
-70 40 417 206 150 123 
-70 40 418 176 120 93 
-70 40 420 150 90 64 
-69 40 421 139 79 53 
-69 40 422 142 78 51 
-68 40 423 143 79 52 
-67 40 424 141 79 54 
-67 41 426 140 78 53 
-67 41 427 132 77 57 
-66 41 427 134 79 59 
-65 41 429 136 81 61 
-65 41 430 132 77 57 
-77 40 418 215 166 149 
-76 40 416 206 159 141 
-75 40 415 215 168 150 
-74 40 415 223 173 150 
-73 40 415 223 173 150 
-73 40 415 233 177 150 
-72 40 416 231 175 148 
-72 40 416 219 159 131 
-71 40 417 183 123 95 
-71 40 418 150 93 66 
-70 41 420 142 85 58 
-70 41 421 138 80 56 
-69 41 422 139 81 57 
-69 41 424 143 81 56 
-68 41 425 137 75 50 
-68 41 426 132 74 52 
-67 41 427 137 79 57 
-67 41 428 130 77 59 
-66 42 429 125 72 54 
-66 42 430 122 75 59 
-65 42 430 122 75 59 
-64 42 430 111 83 71 
-78 41 421 206 158 138 
-76 41 416 212 164 144 
-75 41 415 219 168 147 
-75 41 415 229 178 157 
-74 41 415 235 183 161 
-73 41 415 229 177 155 
-73 41 416 224 166 142 
-72 41 417 196 138 114 
-72 41 418 168 108 82 
-71 41 419 141 81 55 
-71 41 420 134 76 52 
-70 41 421 138 80 56 
-70 42 423 136 80 55 
-70 42 424 136 80 55 
-69 42 425 138 80 56 
-69 42 427 136 78 54 
-68 42 428 131 74 54 
-68 42 429 129 72 52 
-67 42 430 124 73 54 
-66 42 430 124 73 54 
-66 42 431 115 75 63 
-65 42 431 118 78 66 
-77 42 418 213 165 142 
-76 42 415 217 169 146 
-75 42 415 224 172 148 
-75 42 415 233 181 157 
-74 42 415 226 175 154 
-74 42 416 196 145 124 
-73 42 417 171 115 92 
-73 42 418 143 87 64 
-72 42 420 136 76 52 
-72 42 421 139 79 55 
-71 42 422 142 86 61 
-71 42 423 134 78 53 
-70 43 425 135 81 57 
-70 43 426 134 80 56 
-69 43 427 132 78 54 
-69 43 428 130 76 52 
-68 43 429 127 75 53 
-68 43 430 125 73 51 
-67 43 431 120 71 54 
-66 43 431 117 68 51 
-66 43 431 109 75 65 
-78 43 419 217 160 141 
-77 42 417 214 159 138 
-76 42 416 222 167 146 
-75 42 415 222 168 144 
-75 42 416 217 163 139 
-74 42 417 176 130 97 
-74 42 418 143 97 64 
-73 43 419 139 83 56 
-73 43 420 142 86 59 
-72 43 421 144 82 59 
-72 43 423 143 81 58 
-72 43 424 141 80 61 
-71 43 425 140 79 60 
-71 43 427 139 78 59 
-70 44 428 138 77 58 
-70 44 429 135 78 59 
-69 44 429 134 77 58 
-68 44 430 125 76 61 
-68 44 431 125 76 61 
-67 44 431 116 78 65 
-67 44 432 110 72 59 
-79 43 420 212 155 136 
-78 43 417 214 157 138 
-77 43 416 217 163 139 
-76 43 416 220 166 142 
-76 43 417 198 144 118 
-75 43 417 159 105 79 
-75 43 418 142 91 60 
-74 43 419 136 85 54 
-74 43 421 141 85 60 
-73 44 422 140 84 59 
-73 44 423 136 78 58 
-72 44 425 137 79 59 
-72 44 426 139 80 62 
-71 44 427 138 79 61 
-71 44 429 138 79 61 
-70 44 429 137 78 60 
-70 44 430 132 77 57 
-69 44 430 133 78 58 
-69 45 431 126 80 64 
-68 45 431 119 73 57 
-67 45 432 108 75 60 
-67 45 432 117 84 69 
-80 44 420 198 139 123 
-79 44 418 214 159 138 
-78 44 417 217 162 141 
-77 44 417 208 152 129 
-76 44 417 174 118 95 
-76 44 417 152 96 69 
-75 44 419 143 87 60 
-75 44 419 139 83 58 
-74 44 421 142 86 61 
-74 44 422 143 87 64 
-74 44 424 140 84 61 
-73 45 425 137 80 61 
-73 45 427 139 82 63 
-72 45 427 138 81 62 
-72 45 428 134 77 58 
-71 45 429 135 78 59 
-70 45 430 133 76 57 
-70 45 431 129 78 59 
-69 45 431 128 77 58 
-69 45 431 115 78 60 
-68 45 431 115 78 60 
-67 45 432 111 85 72 
-80 45 419 183 124 108 
-79 45 418 206 147 131 
-79 45 418 210 153 133 
-78 45 418 195 138 118 
-77 45 418 162 106 81 
-77 45 419 141 85 60 
-76 45 419 139 82 55 
-76 45 421 146 89 62 
-75 45 422 145 89 64 
-75 45 422 141 85 60 
-74 45 424 137 81 58 
-74 45 425 137 81 58 
-73 45 427 136 81 60 
-73 46 428 136 81 60 
-72 46 429 136 81 61 
-72 46 429 133 78 58 
-71 46 430 134 79 59 
-71 46 431 135 80 60 
-70 46 431 124 78 62 
-69 46 432 121 75 59 
-69 46 432 111 83 72 
-80 45 418 200 141 125 
-79 45 418 201 142 126 
-79 45 418 182 125 105 
-78 45 418 154 97 77 
-77 45 419 139 81 57 
-77 45 420 145 87 63 
-76 46 421 142 85 58 
-76 46 422 141 84 57 
-75 46 423 141 87 63 
-75 46 424 136 82 58 
-74 46 425 133 81 57 
-74 46 427 135 83 59 
-74 46 428 133 79 55 
-73 46 428 132 78 54 
-73 47 430 135 80 59 
-72 47 431 134 79 58 
-80 46 417 195 136 120 
-79 46 418 174 115 99 
-79 46 419 146 88 68 
-78 46 419 140 82 62 
-78 46 420 145 87 63 
-77 46 421 144 86 62 
-77 46 422 139 82 55 
-76 46 423 140 83 56 
-76 47 425 138 86 64 
-75 47 426 135 83 61 
-75 47 427 136 84 62 
-74 47 428 136 84 62 
-74 47 429 133 81 57 
-73 47 429 133 81 57 
-73 47 430 129 81 61 
-72 47 431 125 77 57 
-80 46 417 192 126 112 
-80 47 418 171 109 94 
-79 47 418 147 85 70 
-79 47 420 138 80 60 
-79 47 421 142 84 64 
-78 47 421 139 81 59 
-77 47 422 139 81 59 
-77 47 424 143 87 62 
-77 47 425 135 79 54 
-76 47 426 137 81 64 
-76 48 427 135 79 62 
-75 48 428 133 81 60 
-81 47 418 178 112 98 
-80 47 419 146 84 69 
-80 47 420 134 72 57 
-79 48 421 142 81 63 
-79 48 422 143 82 64 
-78 48 423 141 83 61 
-78 48 424 138 80 58 
-77 48 425 135 81 55 
-77 48 426 135 81 55 
-76 48 427 137 79 65 
-76 48 427 137 79 65 
-75 48 428 138 82 65 
-81 48 418 154 88 72 
-80 48 419 143 77 63 
-80 48 420 144 78 64 
-79 48 422 143 81 70 
-79 48 423 141 79 68 
-78 49 424 143 87 70 
-78 49 424 139 83 66 
-80 49 419 140 77 62 
-80 49 421 144 81 66 
-79 49 422 145 82 65 
-79 49 423 148 85 68 
-78 49 424 141 83 63 
-78 49 425 143 85 65 
-80 49 420 137 78 62 
-80 50 421 139 80 64 
-80 50 420 134 76 62 
-80 50 421 143 85 71 
