ply
format ascii 1.0
comment Created by CloudCompare v2.10.1 (Zephyrus)
comment Created 2020-05-06 8:41 PM
obj_info Generated by CloudCompare!
element vertex 667
property float x
property float y
property float z
property uchar red
property uchar green
property uchar blue
property float scalar_Original_cloud_index
end_header
-12 182 412 194 184 185 0 
-12 183 413 170 154 154 0 
-12 182 411 192 139 108 0 
-12 183 413 161 142 138 0 
-12 183 411 196 142 108 0 
-12 184 413 166 143 137 0 
-13 183 409 176 139 120 0 
-12 183 409 179 142 123 0 
-12 184 412 169 139 129 0 
-11 185 415 169 139 129 0 
-13 183 408 172 135 116 0 
-12 183 409 178 141 122 0 
-12 184 411 170 140 129 0 
-11 186 414 169 139 128 0 
-15 183 406 218 170 132 0 
-14 183 406 204 161 129 0 
-14 183 407 188 145 113 0 
-13 183 407 170 134 112 0 
-12 184 408 174 138 116 0 
-12 184 410 170 140 129 0 
-11 185 412 170 140 129 0 
-11 187 416 166 139 130 0 
-19 185 409 201 148 114 0 
-17 184 407 220 170 135 0 
-15 183 406 195 149 115 0 
-15 183 406 206 160 126 0 
-14 183 405 200 159 129 0 
-13 183 405 191 150 120 0 
-13 183 406 171 136 114 0 
-12 183 406 171 136 114 0 
-12 184 407 168 140 126 0 
-11 185 409 171 143 129 0 
-10 186 412 165 141 131 0 
-20 186 410 170 121 91 0 
-19 185 408 176 127 97 0 
-17 184 406 204 155 122 0 
-17 184 406 197 148 115 0 
-16 184 406 186 137 104 0 
-15 183 405 194 149 116 0 
-15 183 405 200 155 122 0 
-14 183 404 207 168 139 0 
-13 183 404 203 164 135 0 
-13 183 404 180 145 123 0 
-12 183 404 170 135 113 0 
-12 183 405 168 139 125 0 
-11 184 406 172 143 129 0 
-10 184 407 167 140 131 0 
-10 186 411 167 140 131 0 
-20 186 409 174 127 99 0 
-19 185 408 166 119 91 0 
-18 185 407 176 127 95 0 
-17 185 406 182 133 101 0 
-17 184 405 197 151 117 0 
-16 184 405 203 157 123 0 
-15 184 404 202 157 126 0 
-15 183 403 216 171 140 0 
-14 183 403 222 180 155 0 
-13 183 403 219 177 152 0 
-13 183 403 193 157 135 0 
-12 183 403 176 140 118 0 
-11 183 403 168 136 123 0 
-11 183 403 174 142 129 0 
-10 184 404 169 140 134 0 
-10 184 405 168 139 133 0 
-9 185 407 167 139 135 0 
-8 186 410 169 141 137 0 
-20 187 409 197 153 128 0 
-19 186 407 193 149 124 0 
-18 185 406 199 154 123 0 
-17 185 405 204 159 128 0 
-17 184 404 216 171 138 0 
-16 184 403 218 173 140 0 
-15 184 403 215 171 142 0 
-15 183 402 223 179 150 0 
-14 183 401 226 186 161 0 
-13 183 401 225 185 160 0 
-13 183 401 206 170 148 0 
-12 183 401 189 153 131 0 
-11 183 401 172 140 127 0 
-11 183 401 172 140 127 0 
-10 183 402 170 141 135 0 
-10 183 402 169 140 134 0 
-9 184 403 170 139 134 0 
-8 185 405 170 139 134 0 
-8 186 407 171 142 136 0 
-20 187 409 208 168 142 0 
-19 186 406 213 173 147 0 
-18 185 405 214 173 141 0 
-17 185 404 214 173 141 0 
-17 184 403 212 172 137 0 
-16 184 402 208 168 133 0 
-15 184 401 214 175 146 0 
-15 183 400 216 177 148 0 
-14 183 400 220 183 157 0 
-13 183 400 222 185 159 0 
-13 183 400 215 180 158 0 
-12 183 400 202 167 145 0 
-11 183 399 175 146 132 0 
-11 183 399 170 141 127 0 
-10 183 400 170 142 138 0 
-9 183 400 168 140 136 0 
-9 183 400 171 141 131 0 
-8 184 401 170 140 130 0 
-8 184 403 171 141 133 0 
-7 185 405 173 143 135 0 
-20 188 409 209 170 139 0 
-19 186 406 207 168 137 0 
-18 186 404 201 162 129 0 
-17 185 403 200 161 128 0 
-17 184 401 200 162 126 0 
-16 184 401 199 161 125 0 
-15 184 400 205 164 132 0 
-15 183 399 208 167 135 0 
-14 183 399 213 174 145 0 
-13 183 399 215 176 147 0 
-13 183 399 220 186 161 0 
-12 183 399 208 174 149 0 
-11 183 398 189 157 142 0 
-11 183 398 179 147 132 0 
-10 183 398 169 139 131 0 
-9 183 398 169 139 131 0 
-9 183 398 178 139 134 0 
-8 183 399 175 136 131 0 
-8 184 400 167 138 134 0 
-7 185 402 168 139 135 0 
-19 188 408 209 170 139 0 
-19 187 405 208 169 138 0 
-18 186 403 201 163 127 0 
-17 185 401 199 161 125 0 
-17 184 400 202 162 126 0 
-16 184 399 202 162 126 0 
-15 183 398 202 162 127 0 
-15 183 398 205 165 130 0 
-14 183 398 206 167 136 0 
-13 183 398 209 170 139 0 
-13 183 398 216 182 155 0 
-12 183 398 211 177 150 0 
-11 183 397 196 165 145 0 
-11 183 397 188 157 137 0 
-10 183 397 175 145 134 0 
-9 183 397 169 139 128 0 
-9 183 397 175 138 130 0 
-8 183 397 174 137 129 0 
-8 183 398 166 141 136 0 
-7 184 399 164 139 134 0 
-6 185 401 167 140 133 0 
-6 186 404 171 144 137 0 
-19 188 407 209 168 138 0 
-19 186 403 208 167 137 0 
-18 185 401 204 161 127 0 
-17 184 399 201 158 124 0 
-16 184 398 205 163 125 0 
-16 184 398 205 163 125 0 
-15 184 397 203 161 123 0 
-14 184 397 208 166 128 0 
-14 183 396 208 168 133 0 
-13 184 397 209 169 134 0 
-13 183 396 215 178 149 0 
-12 183 396 215 178 149 0 
-11 183 396 204 172 149 0 
-11 183 395 201 169 146 0 
-10 183 395 190 159 141 0 
-9 183 395 181 150 132 0 
-9 183 395 179 145 135 0 
-8 183 396 174 140 130 0 
-7 183 396 166 142 132 0 
-7 184 397 164 140 130 0 
-6 184 399 167 140 131 0 
-6 186 402 171 144 135 0 
-19 188 406 207 162 131 0 
-19 186 402 207 162 131 0 
-18 186 400 206 160 126 0 
-17 185 398 201 155 121 0 
-16 184 397 204 159 120 0 
-16 184 396 207 162 123 0 
-15 184 396 207 162 123 0 
-14 184 396 214 169 130 0 
-14 183 395 219 175 140 0 
-13 183 395 218 174 139 0 
-13 184 396 217 176 146 0 
-12 183 395 218 177 147 0 
-11 183 395 211 175 149 0 
-11 183 394 213 177 151 0 
-10 183 394 207 172 150 0 
-9 183 394 199 164 142 0 
-9 183 394 191 158 141 0 
-8 183 394 179 146 129 0 
-7 183 395 165 142 128 0 
-7 183 395 164 141 127 0 
-6 184 397 169 141 130 0 
-6 186 400 170 142 131 0 
-19 189 405 202 155 125 0 
-18 187 401 204 157 127 0 
-18 186 399 207 158 125 0 
-17 185 397 203 154 121 0 
-16 184 396 202 154 114 0 
-16 184 396 207 159 119 0 
-15 184 395 210 163 121 0 
-14 184 395 215 168 126 0 
-14 183 394 221 176 137 0 
-13 183 394 221 176 137 0 
-13 184 395 215 172 138 0 
-12 183 394 218 175 141 0 
-11 183 394 214 175 146 0 
-11 183 394 220 181 152 0 
-10 183 393 215 180 152 0 
-9 183 393 209 174 146 0 
-9 183 393 200 168 147 0 
-8 183 393 188 156 135 0 
-7 183 393 171 145 128 0 
-7 183 394 165 139 122 0 
-6 184 396 168 138 127 0 
-6 185 398 169 139 128 0 
-5 186 400 165 141 129 0 
-19 188 403 199 150 118 0 
-18 187 400 204 155 123 0 
-18 186 398 209 159 124 0 
-17 185 396 205 155 120 0 
-16 185 396 204 155 114 0 
-16 184 395 206 157 116 0 
-15 184 395 206 159 115 0 
-14 184 394 206 159 115 0 
-14 184 394 216 171 129 0 
-13 184 394 217 172 130 0 
-12 184 394 210 166 129 0 
-12 184 393 215 171 134 0 
-11 184 393 211 172 139 0 
-11 184 393 217 178 145 0 
-10 183 392 215 179 147 0 
-9 183 392 212 176 144 0 
-9 183 392 203 171 148 0 
-8 183 392 198 166 143 0 
-7 184 393 182 157 137 0 
-7 184 393 168 143 123 0 
-6 184 394 166 136 125 0 
-6 185 396 168 138 127 0 
-5 186 399 164 142 131 0 
-19 188 402 197 147 112 0 
-18 187 399 207 157 122 0 
-18 186 397 210 158 121 0 
-17 186 396 206 154 117 0 
-16 185 395 207 154 114 0 
-16 185 394 208 155 115 0 
-15 185 394 207 156 111 0 
-14 185 394 204 153 108 0 
-14 184 393 218 170 124 0 
-13 184 393 219 171 125 0 
-12 184 393 209 164 123 0 
-12 184 393 215 170 129 0 
-11 184 392 211 168 133 0 
-11 184 392 217 174 139 0 
-10 183 391 216 177 144 0 
-9 183 391 214 175 142 0 
-9 183 391 205 174 145 0 
-8 183 391 206 175 146 0 
-7 184 392 196 170 147 0 
-7 184 392 179 153 130 0 
-6 184 393 169 140 126 0 
-6 185 395 168 139 125 0 
-5 186 397 165 143 132 0 
-19 189 401 202 148 110 0 
-18 187 398 212 158 120 0 
-18 186 396 211 155 118 0 
-17 186 395 205 149 112 0 
-16 185 394 206 151 110 0 
-16 185 393 208 153 112 0 
-15 185 393 208 156 109 0 
-14 184 392 207 155 108 0 
-14 184 392 222 171 124 0 
-13 184 392 224 173 126 0 
-12 184 392 214 165 122 0 
-12 184 392 221 172 129 0 
-11 184 391 213 167 131 0 
-10 184 391 218 172 136 0 
-10 183 390 217 177 142 0 
-9 183 390 214 174 139 0 
-9 183 390 211 178 145 0 
-8 183 390 211 178 145 0 
-7 184 391 205 178 151 0 
-7 184 392 191 164 137 0 
-6 185 393 176 145 127 0 
-6 185 394 170 139 121 0 
-5 186 396 164 142 129 0 
-4 187 398 168 146 133 0 
-19 189 401 202 150 110 0 
-18 187 397 204 152 112 0 
-18 187 396 202 149 107 0 
-17 186 394 206 153 111 0 
-16 185 393 206 152 108 0 
-16 185 393 208 154 110 0 
-15 185 392 209 155 109 0 
-14 185 392 209 155 109 0 
-14 185 392 221 168 124 0 
-13 185 392 222 169 125 0 
-12 184 391 215 166 123 0 
-12 184 391 218 169 126 0 
-11 184 391 214 169 128 0 
-10 184 391 220 175 134 0 
-10 184 390 220 176 137 0 
-9 184 390 220 176 137 0 
-9 184 390 216 181 153 0 
-8 184 390 215 180 152 0 
-7 184 391 212 180 155 0 
-7 184 391 201 169 144 0 
-6 185 392 184 154 128 0 
-6 185 393 173 143 117 0 
-5 186 395 165 138 127 0 
-4 187 397 167 140 129 0 
-19 189 400 201 150 107 0 
-18 188 397 202 151 108 0 
-18 187 395 201 148 104 0 
-17 186 393 206 153 109 0 
-16 186 393 206 152 106 0 
-16 186 392 207 153 107 0 
-15 185 391 209 155 109 0 
-14 185 391 208 154 108 0 
-14 185 391 218 166 119 0 
-13 185 391 222 170 123 0 
-12 185 390 215 166 123 0 
-12 185 390 217 168 125 0 
-11 185 390 214 169 128 0 
-10 185 390 218 173 132 0 
-10 184 389 220 176 137 0 
-9 184 389 221 177 138 0 
-9 184 389 217 180 151 0 
-8 184 389 217 180 151 0 
-7 185 390 215 181 154 0 
-7 185 391 205 171 144 0 
-6 185 391 190 159 131 0 
-6 186 393 177 146 118 0 
-5 186 394 164 136 125 0 
-4 187 396 169 141 130 0 
-19 189 399 204 153 108 0 
-18 188 396 202 151 106 0 
-18 187 394 200 148 101 0 
-17 187 393 205 153 106 0 
-16 186 392 205 151 104 0 
-16 186 391 205 151 104 0 
-15 186 391 208 154 107 0 
-14 186 391 209 155 108 0 
-14 185 390 219 167 119 0 
-13 185 390 226 174 126 0 
-12 185 390 219 171 125 0 
-12 185 389 221 173 127 0 
-11 185 389 218 173 131 0 
-10 185 389 219 174 132 0 
-10 184 388 223 180 138 0 
-9 184 388 223 180 138 0 
-9 185 389 222 181 151 0 
-8 185 389 221 180 150 0 
-7 185 389 219 182 153 0 
-7 185 390 209 172 143 0 
-6 186 391 198 165 134 0 
-6 186 392 185 152 121 0 
-5 187 393 164 134 123 0 
-4 188 395 171 141 130 0 
-19 190 399 206 155 108 0 
-18 188 395 204 153 106 0 
-17 187 393 200 148 100 0 
-17 187 392 205 153 105 0 
-16 186 391 204 151 101 0 
-15 186 390 204 151 101 0 
-15 186 390 210 157 107 0 
-14 186 390 215 162 112 0 
-14 186 390 221 169 121 0 
-13 186 390 231 179 131 0 
-12 186 390 224 176 128 0 
-12 185 389 225 177 129 0 
-11 185 389 223 176 132 0 
-10 185 389 222 175 131 0 
-10 185 388 225 182 139 0 
-9 185 388 225 182 139 0 
-9 185 388 225 182 148 0 
-8 185 389 224 181 147 0 
-7 185 389 222 183 150 0 
-7 185 389 211 172 139 0 
-6 186 390 199 166 131 0 
-5 186 391 189 156 121 0 
-5 187 392 169 140 124 0 
-4 188 394 171 142 126 0 
-19 190 398 206 154 107 0 
-18 188 394 206 154 107 0 
-17 187 392 202 150 102 0 
-17 187 391 207 155 107 0 
-16 186 390 207 154 104 0 
-15 186 390 207 154 104 0 
-15 186 390 212 159 109 0 
-14 186 390 219 166 116 0 
-14 186 389 222 170 120 0 
-13 186 389 232 180 130 0 
-12 186 389 228 177 130 0 
-12 186 389 226 175 128 0 
-11 185 388 223 176 130 0 
-10 185 388 221 174 128 0 
-10 185 388 225 182 139 0 
-9 185 388 226 183 140 0 
-9 185 388 227 183 146 0 
-8 185 388 227 183 146 0 
-7 185 388 225 187 150 0 
-7 185 388 211 173 136 0 
-6 186 389 196 162 125 0 
-5 186 390 192 158 121 0 
-5 187 391 178 147 129 0 
-4 188 393 173 142 124 0 
-4 189 395 168 151 141 0 
-18 189 394 206 154 107 0 
-17 188 392 204 152 104 0 
-17 187 391 210 158 110 0 
-16 187 390 211 158 108 0 
-15 187 390 211 158 108 0 
-15 187 389 213 160 110 0 
-14 187 389 219 166 116 0 
-14 187 389 221 169 119 0 
-13 186 388 232 180 130 0 
-12 186 388 230 179 132 0 
-12 186 388 227 176 129 0 
-11 186 388 225 178 132 0 
-10 186 387 221 174 128 0 
-10 186 387 226 181 139 0 
-9 186 387 229 184 142 0 
-9 186 387 229 184 143 0 
-8 186 387 230 185 144 0 
-7 186 387 227 188 149 0 
-7 186 387 215 176 137 0 
-6 186 388 196 162 124 0 
-5 187 389 194 160 122 0 
-5 187 391 186 155 135 0 
-4 188 392 173 142 122 0 
-4 189 394 170 152 140 0 
-18 190 394 207 155 108 0 
-17 189 392 207 155 107 0 
-17 188 391 212 160 112 0 
-16 188 390 211 157 110 0 
-15 187 389 211 157 110 0 
-15 187 389 213 160 110 0 
-14 187 389 217 164 114 0 
-14 187 388 221 167 120 0 
-13 186 387 232 178 131 0 
-12 186 387 233 182 135 0 
-12 187 388 229 178 131 0 
-11 186 387 227 180 136 0 
-10 186 387 222 175 131 0 
-10 186 387 226 181 139 0 
-9 186 387 230 185 143 0 
-9 186 387 231 184 142 0 
-8 186 387 232 185 143 0 
-7 186 387 227 185 145 0 
-7 186 387 223 181 141 0 
-6 187 388 203 168 130 0 
-5 187 389 200 165 127 0 
-5 188 390 196 163 144 0 
-4 189 392 176 143 124 0 
-4 189 393 171 153 139 0 
-18 190 394 209 156 112 0 
-17 189 392 208 156 109 0 
-17 189 391 210 158 111 0 
-16 188 390 208 154 107 0 
-15 188 389 208 154 107 0 
-15 188 389 212 159 109 0 
-14 188 389 217 164 114 0 
-14 187 388 220 166 119 0 
-13 187 387 230 176 129 0 
-12 187 387 233 182 135 0 
-12 187 387 228 177 130 0 
-11 186 386 226 179 135 0 
-10 186 386 220 173 129 0 
-10 186 386 224 179 137 0 
-9 186 386 230 185 143 0 
-9 186 386 232 183 140 0 
-8 186 386 231 182 139 0 
-7 186 386 225 183 143 0 
-7 186 386 228 186 146 0 
-6 187 387 213 175 138 0 
-5 187 388 207 169 132 0 
-5 188 389 204 169 150 0 
-4 189 391 179 144 125 0 
-4 190 393 173 154 140 0 
-18 191 395 209 161 115 0 
-17 190 393 209 158 111 0 
-17 189 390 209 158 111 0 
-16 189 390 209 158 105 0 
-15 188 389 206 155 102 0 
-15 188 389 210 157 103 0 
-14 188 388 212 159 105 0 
-13 187 387 217 164 112 0 
-13 187 387 224 171 119 0 
-12 187 386 234 183 136 0 
-12 187 386 234 183 136 0 
-11 187 386 228 179 138 0 
-10 186 385 223 174 133 0 
-10 186 385 223 175 137 0 
-9 186 385 231 183 145 0 
-8 186 385 234 185 144 0 
-8 186 385 233 184 143 0 
-7 186 385 227 184 142 0 
-7 186 385 228 185 143 0 
-6 187 386 208 174 137 0 
-5 187 387 209 175 138 0 
-5 188 388 199 173 148 0 
-4 189 390 178 152 127 0 
-4 190 392 167 150 142 0 
-17 191 393 210 160 111 0 
-17 190 391 208 158 109 0 
-16 189 389 208 157 104 0 
-15 188 388 205 154 101 0 
-15 188 388 209 156 102 0 
-14 188 388 212 159 105 0 
-13 188 387 215 162 110 0 
-13 187 386 223 170 118 0 
-12 187 386 234 183 136 0 
-12 187 386 235 184 137 0 
-11 187 385 227 178 137 0 
-10 187 385 221 172 131 0 
-10 187 385 222 174 136 0 
-9 187 385 229 181 143 0 
-8 187 385 231 187 148 0 
-8 187 385 231 187 148 0 
-7 187 385 226 186 150 0 
-7 187 385 227 187 151 0 
-6 187 385 208 175 142 0 
-5 187 386 207 174 141 0 
-5 188 388 198 170 146 0 
-4 189 390 179 151 127 0 
-4 190 392 168 150 138 0 
-17 191 393 211 159 111 0 
-17 191 391 209 157 109 0 
-16 190 389 208 155 103 0 
-15 189 388 206 153 101 0 
-15 189 388 206 153 99 0 
-14 189 388 211 158 104 0 
-13 189 387 217 164 112 0 
-13 188 386 224 171 119 0 
-12 188 386 236 185 138 0 
-12 188 386 239 188 141 0 
-11 188 385 229 181 141 0 
-10 188 385 224 176 136 0 
-10 187 384 223 177 141 0 
-9 187 384 230 184 148 0 
-8 187 384 231 191 155 0 
-8 187 384 231 191 155 0 
-7 187 384 227 188 155 0 
-7 187 384 227 188 155 0 
-6 188 385 211 176 146 0 
-5 188 386 207 172 142 0 
-5 189 387 200 170 144 0 
-4 190 389 184 154 128 0 
-17 191 391 208 154 107 0 
-16 191 390 209 153 102 0 
-15 190 389 207 151 100 0 
-15 190 388 205 150 96 0 
-14 189 387 211 156 102 0 
-13 189 387 218 165 115 0 
-13 189 386 225 172 122 0 
-12 188 385 235 184 137 0 
-12 188 385 240 189 142 0 
-11 188 385 233 185 145 0 
-10 188 384 231 183 143 0 
-10 188 384 227 183 146 0 
-9 187 383 233 189 152 0 
-8 187 383 234 194 158 0 
-8 188 384 233 193 157 0 
-7 188 384 229 191 155 0 
-7 188 384 229 191 155 0 
-6 188 384 216 180 148 0 
-5 188 385 210 174 142 0 
-5 189 387 203 172 144 0 
-4 190 389 186 155 127 0 
-16 191 390 207 149 99 0 
-15 191 389 205 147 97 0 
-15 190 388 204 148 97 0 
-14 190 388 211 155 104 0 
-13 190 387 217 164 114 0 
-13 189 386 224 171 121 0 
-12 189 385 233 182 137 0 
-12 188 384 240 189 144 0 
-11 188 384 232 187 146 0 
-10 188 384 232 187 146 0 
-10 188 383 228 184 147 0 
-9 188 383 234 190 153 0 
-8 188 383 236 193 159 0 
-8 188 383 235 192 158 0 
-7 188 384 233 193 157 0 
-7 188 384 233 193 157 0 
-6 188 384 221 185 151 0 
-5 189 385 213 177 143 0 
-5 190 387 204 174 148 0 
-15 192 390 202 144 96 0 
-15 191 388 203 145 95 0 
-14 190 387 211 153 103 0 
-13 190 387 216 163 113 0 
-13 190 386 225 172 122 0 
-12 189 385 231 183 137 0 
-12 189 384 239 191 145 0 
-11 189 384 232 187 146 0 
-10 188 383 233 188 147 0 
-10 188 382 227 185 147 0 
-9 188 382 234 192 154 0 
-8 188 382 235 194 162 0 
-8 188 383 233 192 160 0 
-7 188 383 233 195 159 0 
-7 188 383 234 196 160 0 
-6 189 384 224 190 155 0 
-5 189 385 214 180 145 0 
-5 190 387 202 175 148 0 
-15 192 389 203 145 95 0 
-14 191 388 207 149 99 0 
-13 191 387 216 163 113 0 
-13 190 386 225 172 122 0 
-12 190 385 231 183 135 0 
-12 189 384 241 193 145 0 
-11 189 383 231 188 146 0 
-10 189 382 232 189 147 0 
-10 189 382 227 185 147 0 
-9 189 382 233 191 153 0 
-8 189 382 233 196 167 0 
-8 189 382 232 195 166 0 
-7 189 383 231 195 161 0 
-7 189 383 231 195 161 0 
-6 189 383 224 191 156 0 
-5 190 385 213 180 145 0 
-5 191 387 203 173 147 0 
-13 192 387 214 161 111 0 
-13 191 386 223 170 120 0 
-12 191 385 230 182 134 0 
-12 190 384 241 193 145 0 
-11 189 382 230 187 145 0 
-10 189 382 232 189 147 0 
-10 189 382 224 185 146 0 
-9 189 381 230 191 152 0 
-8 189 382 233 198 168 0 
-8 189 382 231 196 166 0 
-7 190 383 230 196 161 0 
-7 190 383 229 195 160 0 
-6 190 384 227 193 158 0 
-5 191 386 215 181 146 0 
-13 192 387 227 171 124 0 
-12 191 385 232 179 137 0 
-12 191 384 243 190 148 0 
-11 190 383 235 187 147 0 
-10 190 382 231 183 143 0 
-10 189 381 228 186 146 0 
-9 189 381 232 190 150 0 
-8 189 381 241 199 161 0 
-8 190 382 238 196 158 0 
-7 190 383 231 195 161 0 
-7 191 384 229 193 159 0 
-6 191 385 224 190 165 0 
-12 192 386 229 176 136 0 
-12 192 385 240 187 147 0 
-11 191 384 233 188 149 0 
-10 191 383 231 186 147 0 
-10 190 382 227 188 149 0 
-9 190 382 226 187 148 0 
-8 190 382 237 197 161 0 
-8 190 382 237 197 161 0 
-7 191 383 229 193 161 0 
-7 191 384 227 191 159 0 
-11 192 385 235 189 153 0 
-10 192 384 232 186 150 0 
-10 191 383 229 189 153 0 
-9 191 383 229 189 153 0 
-8 191 383 235 195 160 0 
-8 191 383 236 196 161 0 
-7 192 384 225 188 159 0 
-10 192 384 227 189 152 0 
-9 192 384 232 194 157 0 
-8 192 384 233 193 158 0 
