ply
format ascii 1.0
comment Created by CloudCompare v2.10.1 (Zephyrus)
comment Created 2020-05-06 8:41 PM
obj_info Generated by CloudCompare!
element vertex 160
property float x
property float y
property float z
property uchar red
property uchar green
property uchar blue
property float scalar_Original_cloud_index
end_header
-70 186 411 221 167 133 0 
-62 189 416 186 152 127 0 
-70 187 410 197 151 118 0 
-69 186 408 185 132 100 0 
-62 189 414 209 173 149 0 
-62 189 416 189 153 129 0 
-70 186 408 193 154 121 0 
-69 186 407 185 132 101 0 
-63 189 413 220 181 152 0 
-62 189 414 206 170 144 0 
-62 190 416 190 154 128 0 
-71 187 409 169 129 104 0 
-70 187 407 177 137 112 0 
-69 186 406 184 139 108 0 
-68 186 405 184 139 108 0 
-66 187 407 206 158 118 0 
-66 187 407 205 157 117 0 
-64 188 409 206 172 135 0 
-63 189 413 218 185 150 0 
-62 190 414 204 174 146 0 
-62 191 416 190 160 132 0 
-69 186 405 190 153 127 0 
-69 186 405 195 151 122 0 
-68 186 405 194 150 121 0 
-66 187 406 196 151 112 0 
-65 187 406 199 154 115 0 
-64 188 409 203 169 134 0 
-63 189 410 213 179 144 0 
-63 189 411 221 188 155 0 
-63 190 413 220 187 154 0 
-62 191 414 209 179 153 0 
-62 191 416 186 156 130 0 
-67 186 404 211 167 132 0 
-66 187 405 207 163 126 0 
-65 187 406 208 164 127 0 
-65 187 406 220 180 144 0 
-64 188 407 220 180 144 0 
-64 188 408 206 170 136 0 
-63 189 409 210 174 140 0 
-63 190 411 218 183 151 0 
-62 190 412 222 187 155 0 
-62 191 414 211 180 159 0 
-64 188 406 221 181 146 0 
-64 189 407 210 171 138 0 
-63 189 409 211 172 139 0 
-63 190 410 211 175 143 0 
-62 191 412 216 180 148 0 
-62 192 414 195 167 146 0 
-63 190 408 213 174 143 0 
-63 191 410 208 169 138 0 
-62 192 412 212 173 142 0 
-62 192 414 180 149 128 0 
-62 192 411 200 163 134 0 
-62 193 414 172 140 115 0 
-62 192 411 188 149 116 0 
-62 183 412 173 142 121 1 
-62 183 414 173 142 121 1 
-69 183 411 222 171 128 1 
-62 183 411 187 138 105 1 
-62 183 412 174 142 127 1 
-62 184 414 172 140 125 1 
-69 183 411 236 178 141 1 
-63 183 410 188 150 114 1 
-63 184 412 180 142 106 1 
-62 184 413 171 143 119 1 
-69 184 411 226 168 131 1 
-68 183 409 226 173 141 1 
-67 183 408 233 180 148 1 
-66 183 408 225 178 136 1 
-65 183 408 223 176 130 1 
-65 183 408 219 172 126 1 
-64 183 409 215 169 133 1 
-63 183 409 209 163 127 1 
-63 184 411 191 152 121 1 
-63 184 412 182 143 112 1 
-62 185 414 171 141 117 1 
-62 186 416 170 140 116 1 
-69 184 410 172 113 81 1 
-68 183 408 170 115 84 1 
-67 183 407 224 169 138 1 
-66 183 407 225 177 137 1 
-66 183 407 219 171 131 1 
-65 183 408 216 171 129 1 
-65 184 409 216 171 129 1 
-64 184 409 213 168 135 1 
-64 184 410 210 165 132 1 
-63 185 411 200 160 134 1 
-63 185 412 192 152 126 1 
-62 186 414 172 141 120 1 
-62 187 416 170 139 118 1 
-69 184 409 159 103 70 1 
-68 184 408 165 112 80 1 
-67 183 407 234 181 149 1 
-66 183 407 231 183 143 1 
-66 183 407 224 176 136 1 
-65 184 408 220 175 134 1 
-65 184 409 220 175 134 1 
-64 185 410 211 168 136 1 
-64 185 410 208 165 133 1 
-63 185 411 203 167 135 1 
-63 186 413 199 163 131 1 
-62 187 414 179 149 125 1 
-62 188 416 173 143 119 1 
-68 185 408 151 97 63 1 
-68 184 407 184 133 102 1 
-67 184 407 233 182 151 1 
-66 184 407 229 184 145 1 
-66 184 407 226 181 142 1 
-65 185 408 223 179 140 1 
-65 185 409 219 175 136 1 
-64 185 410 210 167 133 1 
-64 186 411 206 163 129 1 
-63 186 412 204 168 132 1 
-63 187 413 204 168 132 1 
-62 187 414 193 163 139 1 
-62 188 416 178 148 124 1 
-69 186 410 210 157 125 1 
-68 185 408 128 75 43 1 
-68 185 407 201 151 118 1 
-67 185 407 231 181 148 1 
-66 185 407 224 179 138 1 
-66 185 408 224 179 138 1 
-65 185 408 220 177 135 1 
-65 186 409 214 171 129 1 
-64 186 410 207 167 131 1 
-64 187 411 208 168 132 1 
-63 187 412 207 174 133 1 
-63 187 413 209 176 135 1 
-62 188 414 206 172 147 1 
-68 185 407 125 72 40 1 
-68 185 407 213 163 130 1 
-67 185 407 230 180 147 1 
-66 185 407 221 176 134 1 
-66 186 408 220 175 133 1 
-65 186 408 213 170 128 1 
-65 186 409 206 163 121 1 
-64 187 410 208 167 135 1 
-64 187 411 217 176 144 1 
-63 188 412 213 177 141 1 
-63 188 413 213 177 141 1 
-68 185 406 149 96 65 1 
-67 186 406 214 161 127 1 
-67 186 407 223 170 136 1 
-66 186 407 215 171 126 1 
-66 186 407 213 169 124 1 
-65 186 408 204 162 120 1 
-65 187 409 197 155 113 1 
-64 187 410 209 168 138 1 
-64 188 411 225 184 154 1 
-63 188 411 222 183 154 1 
-67 186 406 202 154 116 1 
-67 186 406 208 160 122 1 
-65 187 407 201 159 121 1 
-64 187 408 203 161 123 1 
-63 188 410 220 186 149 1 
-63 188 411 223 190 155 1 
-67 186 405 197 151 115 1 
-67 186 405 194 148 112 1 
-65 187 407 205 165 129 1 
-64 187 407 208 168 132 1 
