ply
format ascii 1.0
comment Created by CloudCompare v2.10.1 (Zephyrus)
comment Created 2020-05-17 12:34 AM
obj_info Generated by CloudCompare!
element vertex 506
property float x
property float y
property float z
property uchar red
property uchar green
property uchar blue
end_header
-7 -9 372 202 152 127 
-7 -9 372 222 172 147 
-6 -9 372 222 166 141 
-5 -9 372 227 171 146 
-5 -9 372 221 173 150 
-4 -9 372 220 172 149 
-4 -9 372 221 170 149 
-3 -9 371 214 163 142 
-2 -9 371 200 160 150 
-2 -9 371 215 175 165 
-6 -9 372 225 170 140 
-5 -9 372 229 174 144 
-5 -9 371 225 173 149 
-4 -9 371 226 174 150 
-4 -9 371 221 170 151 
-3 -9 370 220 169 150 
-2 -9 369 208 168 156 
-2 -9 368 213 173 161 
-10 -8 375 203 144 114 
-9 -8 374 215 156 126 
-8 -8 374 221 161 133 
-8 -8 374 222 162 134 
-7 -8 373 220 169 142 
-7 -8 372 219 168 141 
-6 -8 371 227 172 141 
-5 -8 370 223 168 137 
-5 -8 369 221 167 141 
-4 -8 368 225 171 145 
-3 -8 368 217 168 151 
-3 -8 367 215 166 149 
-2 -8 365 213 171 157 
-2 -8 364 202 160 146 
-9 -8 375 216 156 128 
-8 -8 374 215 160 129 
-8 -8 374 220 165 134 
-7 -8 372 217 166 139 
-7 -8 370 218 167 140 
-6 -8 369 224 170 136 
-5 -8 368 222 168 134 
-5 -7 367 226 170 143 
-4 -7 366 219 163 136 
-3 -7 365 212 161 142 
-3 -7 363 214 163 144 
-2 -7 362 212 169 152 
-2 -7 360 226 183 166 
-1 -7 360 198 173 169 
-10 -7 377 210 150 122 
-9 -7 376 216 156 128 
-8 -7 374 211 158 124 
-8 -7 372 213 160 126 
-7 -7 370 216 166 139 
-6 -7 368 221 171 144 
-6 -7 367 224 172 135 
-5 -7 365 221 169 132 
-5 -7 364 227 170 143 
-4 -7 363 219 162 135 
-3 -7 361 211 160 141 
-3 -7 359 212 161 142 
-2 -7 358 207 160 140 
-2 -7 357 221 174 154 
-1 -7 357 225 192 185 
-10 -6 378 210 150 122 
-9 -6 376 213 153 125 
-8 -6 374 213 160 126 
-8 -6 370 215 162 128 
-7 -6 368 216 166 139 
-6 -6 366 219 169 142 
-6 -6 364 224 172 135 
-5 -6 362 222 170 133 
-5 -6 361 226 169 140 
-4 -6 360 224 167 138 
-3 -6 358 212 160 139 
-3 -6 357 214 162 141 
-2 -6 355 212 164 141 
-2 -6 355 210 162 139 
-1 -6 355 217 179 170 
-10 -6 377 207 157 124 
-9 -6 375 211 161 128 
-8 -6 371 213 168 137 
-8 -6 367 215 170 139 
-7 -6 364 224 171 139 
-6 -6 363 227 174 142 
-6 -6 361 225 171 143 
-5 -6 360 223 169 141 
-5 -6 358 226 169 140 
-4 -6 357 225 168 139 
-3 -6 356 219 163 138 
-3 -6 355 219 163 138 
-2 -5 353 217 165 141 
-2 -5 353 216 164 140 
-1 -5 353 213 170 151 
0 -5 353 221 178 159 
0 -5 354 247 237 238 
-10 -5 379 204 152 138 
-10 -5 375 214 164 131 
-9 -5 372 220 170 137 
-8 -5 366 221 174 144 
-8 -5 364 224 177 147 
-7 -5 362 230 177 145 
-6 -5 360 228 175 143 
-6 -5 358 223 169 141 
-5 -5 356 219 165 137 
-5 -5 355 224 165 135 
-4 -5 354 223 164 134 
-3 -5 353 217 160 133 
-3 -5 352 215 158 131 
-2 -5 351 215 159 134 
-2 -5 352 216 160 135 
-1 -5 351 212 165 145 
0 -5 351 215 168 148 
0 -5 351 234 218 219 
-10 -5 378 205 156 139 
-10 -5 372 217 168 136 
-9 -5 368 221 172 140 
-8 -4 364 230 181 149 
-8 -4 362 231 182 150 
-7 -4 359 233 178 147 
-6 -4 357 230 175 144 
-6 -4 356 225 169 142 
-5 -4 354 222 166 139 
-4 -4 353 226 165 134 
-4 -4 351 224 163 132 
-3 -4 350 221 160 131 
-3 -4 350 219 158 129 
-2 -4 349 218 158 132 
-2 -4 349 217 157 131 
-1 -4 348 212 160 138 
0 -4 349 212 160 138 
0 -4 349 215 191 189 
-11 -4 378 202 151 134 
-10 -4 374 208 157 140 
-10 -4 369 215 164 135 
-9 -4 365 220 169 140 
-8 -4 362 227 176 145 
-7 -4 359 225 174 143 
-7 -4 358 222 167 136 
-6 -4 355 218 163 132 
-6 -4 354 215 160 130 
-5 -4 351 213 158 128 
-4 -4 350 218 155 122 
-4 -4 348 215 152 119 
-3 -4 348 220 157 126 
-3 -4 348 221 158 127 
-2 -4 347 218 157 128 
-2 -4 347 214 153 124 
-1 -4 347 212 154 130 
0 -4 348 215 157 133 
0 -4 348 204 173 170 
1 -4 348 255 233 230 
-11 -3 376 204 148 131 
-10 -3 371 203 147 130 
-9 -3 367 206 152 124 
-9 -3 364 215 161 133 
-8 -3 360 220 165 135 
-7 -3 358 217 162 132 
-7 -3 356 212 155 125 
-6 -3 353 207 150 120 
-6 -3 351 204 149 119 
-5 -3 349 203 148 118 
-4 -3 348 209 145 110 
-4 -3 346 207 143 108 
-3 -3 345 211 147 112 
-3 -3 345 214 150 115 
-2 -3 345 213 148 118 
-2 -3 345 212 147 117 
-1 -3 345 211 150 122 
0 -3 345 218 157 129 
0 -3 346 206 167 162 
1 -3 347 255 229 224 
-12 -3 378 190 143 123 
-11 -3 373 195 136 118 
-10 -3 369 194 135 117 
-9 -3 366 197 137 111 
-9 -3 362 204 144 118 
-8 -3 359 213 152 123 
-7 -3 356 215 154 125 
-7 -3 354 214 155 125 
-6 -3 351 213 154 124 
-6 -3 349 207 150 121 
-5 -3 347 203 146 117 
-4 -3 346 207 141 106 
-4 -3 344 205 139 104 
-3 -3 343 209 141 106 
-3 -3 343 212 144 109 
-2 -3 343 210 144 112 
-2 -3 343 214 148 116 
-1 -3 343 214 149 121 
0 -3 344 216 151 123 
0 -3 344 203 158 152 
-12 -2 376 184 133 112 
-11 -2 372 191 126 108 
-10 -2 368 191 126 108 
-9 -2 365 193 129 104 
-9 -2 362 199 135 110 
-8 -2 358 212 147 117 
-7 -2 355 216 151 121 
-7 -2 351 218 155 124 
-6 -2 349 219 156 125 
-6 -2 346 212 153 123 
-5 -2 344 204 145 115 
-4 -2 343 206 138 99 
-4 -2 342 204 136 97 
-3 -2 341 206 137 98 
-3 -2 341 212 143 104 
-2 -2 341 208 139 106 
-2 -2 341 213 144 111 
-1 -2 341 213 144 115 
0 -2 342 213 144 115 
0 -2 342 196 148 138 
-12 -2 375 182 127 106 
-11 -2 371 186 119 100 
-10 -1 368 187 120 101 
-9 -1 364 195 127 104 
-9 -1 361 206 138 115 
-8 -1 357 215 146 115 
-7 -1 353 219 150 119 
-7 -1 350 217 152 120 
-6 -1 346 218 153 121 
-6 -1 344 213 152 121 
-5 -1 342 207 146 115 
-4 -1 341 212 143 102 
-4 -1 340 212 143 102 
-3 -1 339 202 130 90 
-3 -1 339 211 139 99 
-2 -1 339 201 133 98 
-2 -1 340 202 134 99 
-1 -1 340 205 134 104 
0 -1 341 209 138 108 
0 -1 341 192 140 129 
1 -1 341 208 156 145 
-11 -1 374 181 120 99 
-11 -1 370 181 121 97 
-10 -1 368 184 124 100 
-9 -1 364 189 130 100 
-9 -1 360 200 141 111 
-8 -1 356 211 145 110 
-7 -1 352 219 153 118 
-7 -1 348 221 157 122 
-6 -1 345 220 156 121 
-5 -1 342 221 156 124 
-5 -1 341 217 152 120 
-4 -1 339 211 145 111 
-4 -1 338 210 144 110 
-3 -1 338 201 131 95 
-3 -1 338 196 126 90 
-2 -1 338 204 136 101 
-2 -1 338 203 135 100 
-1 -1 339 196 131 101 
0 -1 339 199 134 104 
0 -1 340 200 140 114 
1 -1 340 210 150 124 
-11 0 374 182 117 95 
-11 0 370 182 120 95 
-10 0 368 187 125 100 
-9 0 364 192 131 100 
-9 0 360 202 141 110 
-8 0 354 215 151 116 
-7 0 350 222 158 123 
-7 0 346 223 160 127 
-6 0 343 220 157 124 
-5 0 340 218 155 122 
-5 0 338 214 151 118 
-4 0 337 212 146 112 
-4 0 336 214 148 114 
-3 0 336 197 127 91 
-3 0 336 192 122 86 
-2 0 337 198 128 94 
-2 0 337 199 129 95 
-1 0 338 193 128 98 
0 0 338 199 134 104 
0 0 339 200 140 114 
-11 0 374 184 117 91 
-11 0 371 187 122 94 
-10 0 368 193 128 100 
-9 0 364 196 133 100 
-9 0 360 205 142 109 
-8 0 353 213 150 115 
-7 0 349 220 157 122 
-7 0 344 221 161 127 
-6 0 342 220 160 126 
-5 0 339 220 157 126 
-5 0 337 215 152 121 
-4 0 335 212 148 113 
-4 0 335 213 149 114 
-3 0 334 201 131 97 
-3 0 335 193 123 89 
-2 0 335 196 126 92 
-2 0 335 198 128 94 
-1 0 336 195 130 100 
0 0 337 202 137 107 
0 0 337 202 140 115 
-11 1 374 186 116 90 
-11 1 372 188 121 92 
-10 1 369 195 128 99 
-9 1 365 199 134 102 
-9 1 359 208 143 111 
-8 1 352 217 156 125 
-7 1 347 221 160 129 
-7 1 343 220 161 131 
-6 1 339 219 160 130 
-5 1 337 219 160 130 
-5 1 335 219 160 130 
-4 1 333 221 158 125 
-4 1 333 222 159 126 
-3 1 332 213 144 111 
-3 1 333 201 132 99 
-2 1 333 195 126 93 
-2 1 334 197 128 95 
-1 1 335 199 134 106 
0 1 335 203 138 110 
0 1 336 201 141 117 
1 1 336 202 142 118 
-11 2 374 187 117 91 
-11 2 371 187 120 93 
-10 2 369 194 127 100 
-9 2 365 201 136 104 
-9 1 359 209 144 112 
-8 1 352 213 156 126 
-7 1 345 218 161 131 
-7 1 341 219 162 133 
-6 1 336 218 161 132 
-5 1 334 220 163 134 
-5 1 332 221 164 135 
-4 1 331 223 162 133 
-4 1 330 224 163 134 
-3 1 330 219 154 122 
-3 1 330 206 141 109 
-2 1 331 195 129 97 
-2 1 331 196 130 98 
-1 1 333 197 136 108 
0 1 334 196 135 107 
0 1 334 195 137 115 
1 1 335 201 143 121 
-11 2 374 185 119 93 
-11 2 371 188 123 95 
-10 2 369 194 129 101 
-9 2 364 201 136 106 
-9 2 357 208 143 113 
-8 2 350 210 153 124 
-7 2 342 217 160 131 
-6 2 337 219 163 136 
-6 2 333 218 162 135 
-5 2 331 220 164 137 
-5 2 330 220 164 137 
-4 2 329 222 162 134 
-4 2 328 222 162 134 
-3 2 328 219 156 125 
-3 2 328 211 148 117 
-2 2 328 200 136 108 
-1 2 329 203 139 111 
-1 2 330 202 142 118 
0 2 331 195 135 111 
0 2 333 192 137 116 
1 2 334 198 143 122 
-11 3 372 189 125 98 
-10 3 370 193 129 102 
-9 3 365 199 134 104 
-9 3 357 207 142 112 
-8 3 347 211 154 125 
-7 2 338 219 162 133 
-6 2 333 223 167 140 
-6 2 331 224 168 141 
-5 2 330 227 171 144 
-5 2 328 229 173 146 
-4 2 328 229 169 141 
-4 2 327 225 165 137 
-3 2 327 222 158 130 
-3 2 327 220 156 128 
-2 2 328 211 147 119 
-1 2 328 211 147 119 
-1 2 328 205 147 123 
0 2 330 195 137 113 
0 2 331 191 139 118 
-11 3 373 188 126 101 
-10 3 369 191 129 104 
-9 3 365 198 135 104 
-9 3 356 207 144 113 
-8 3 342 219 159 131 
-7 3 334 221 161 133 
-6 3 332 219 162 135 
-6 3 330 220 163 136 
-5 3 329 225 169 142 
-5 3 328 233 177 150 
-4 3 327 237 177 149 
-4 3 326 233 173 145 
-3 3 326 228 164 136 
-3 3 326 229 165 137 
-2 3 327 214 153 124 
-1 3 327 210 149 120 
-1 3 327 203 147 122 
0 3 328 194 138 113 
0 3 329 192 140 119 
-10 4 369 195 129 103 
-9 4 365 197 133 105 
-9 4 353 196 132 104 
-8 4 338 189 124 102 
-7 4 333 175 110 88 
-6 4 330 195 132 114 
-6 4 329 198 135 117 
-5 3 327 206 148 126 
-5 3 327 203 145 123 
-4 3 326 201 146 116 
-4 3 325 211 156 126 
-3 3 325 226 170 135 
-3 3 325 230 174 139 
-2 3 325 222 163 133 
-1 3 326 206 147 117 
-1 3 327 199 141 121 
0 3 327 201 143 123 
0 3 327 187 135 121 
-10 5 369 186 120 96 
-9 4 365 187 122 94 
-8 4 344 190 125 97 
-8 4 334 163 101 78 
-7 4 331 150 88 65 
-6 4 329 201 140 119 
-6 4 328 221 160 139 
-5 4 327 218 160 138 
-5 4 325 213 155 133 
-4 4 325 204 151 120 
-4 4 325 199 146 115 
-3 4 325 200 144 111 
-3 4 325 216 160 127 
-2 4 325 227 167 139 
-1 4 325 208 148 120 
-1 4 326 192 135 115 
0 4 326 197 140 120 
0 4 327 188 136 122 
-10 5 368 183 119 94 
-9 5 364 195 130 102 
-8 5 337 209 144 116 
-7 5 332 174 112 89 
-7 5 330 153 91 68 
-6 5 328 208 148 124 
-6 5 328 228 168 144 
-5 5 326 220 163 136 
-5 5 325 223 166 139 
-4 5 324 220 167 135 
-4 5 324 218 165 133 
-3 5 325 209 155 121 
-3 5 324 198 144 110 
-2 5 325 208 148 122 
-1 5 325 207 147 121 
-1 5 325 198 141 122 
0 5 326 194 137 118 
0 5 326 182 133 118 
1 5 327 161 112 97 
-10 6 367 185 123 100 
-9 6 364 202 136 110 
-8 5 335 215 149 123 
-7 5 331 180 120 94 
-7 5 330 169 109 83 
-6 5 328 210 148 123 
-6 5 327 224 162 137 
-5 5 325 224 167 138 
-5 5 324 228 171 142 
-4 5 323 226 173 139 
-4 5 323 228 175 141 
-3 5 323 224 170 136 
-3 5 324 200 146 112 
-2 5 324 199 139 113 
-1 5 325 196 136 110 
-1 5 325 200 143 124 
0 5 325 198 141 122 
0 5 325 177 128 113 
1 5 326 142 93 78 
-10 6 367 198 138 114 
-9 6 362 208 142 116 
-8 6 334 208 142 116 
-7 6 330 200 141 111 
-7 6 329 199 140 110 
-6 6 328 215 154 125 
-6 6 325 219 158 129 
-5 6 323 224 168 135 
-5 6 322 227 171 138 
-3 6 322 216 162 128 
-2 6 323 210 149 121 
-1 6 323 194 133 105 
-1 6 324 198 139 121 
0 6 324 199 140 122 
0 6 324 175 126 111 
-10 7 365 201 144 117 
-9 6 344 214 149 121 
-8 6 334 215 150 122 
-7 6 330 208 149 117 
-7 6 328 210 151 119 
-6 6 324 212 151 120 
-1 6 322 192 133 115 
0 6 322 186 127 109 
0 6 323 168 119 105 
-10 7 363 205 148 119 
-9 7 342 214 149 119 
-8 7 332 213 148 118 
-7 7 327 203 144 110 
-7 7 323 206 147 113 
-9 7 339 215 149 115 
-8 7 329 214 148 114 
-7 7 323 202 146 109 
-9 8 344 209 149 112 
-9 8 333 204 151 119 
-9 8 335 210 151 111 
-10 9 342 210 148 111 
-10 9 333 209 147 106 
-10 9 331 208 146 109 
-11 10 334 207 147 111 
-12 12 330 204 145 113 
