ply
format ascii 1.0
comment Created by CloudCompare v2.10.1 (Zephyrus)
comment Created 2020-05-17 12:34 AM
obj_info Generated by CloudCompare!
element vertex 312
property float x
property float y
property float z
property uchar red
property uchar green
property uchar blue
end_header
-4 6 321 229 177 140 
-4 6 321 234 182 145 
-3 6 321 226 172 138 
-6 6 321 211 150 119 
-5 6 319 213 154 120 
-5 6 318 214 155 121 
-4 6 318 219 169 132 
-4 6 318 222 172 135 
-3 6 318 233 179 143 
-2 6 319 225 171 135 
-2 6 320 214 153 124 
-1 6 321 194 133 104 
-6 7 320 208 148 114 
-6 6 317 211 151 117 
-5 6 315 209 153 118 
-5 6 314 207 151 116 
-4 6 314 210 160 123 
-3 6 314 212 162 125 
-3 6 315 218 166 129 
-2 6 316 217 165 128 
-2 6 317 214 153 124 
-1 7 318 200 139 110 
-1 7 319 190 131 113 
0 7 320 180 121 103 
-7 7 316 205 149 112 
-6 7 314 209 149 115 
-5 7 311 213 153 119 
-5 7 310 215 159 126 
-4 7 310 209 153 120 
-4 7 310 205 157 119 
-3 7 311 210 162 124 
-3 7 312 210 158 121 
-2 7 313 212 160 123 
-2 7 314 212 151 122 
-1 7 315 199 138 109 
-1 7 316 183 124 106 
0 7 317 181 122 104 
-8 8 322 202 149 117 
-7 7 315 206 147 113 
-6 7 311 208 149 115 
-6 7 309 217 154 113 
-5 7 308 223 160 119 
-5 7 307 221 166 127 
-4 7 307 221 166 127 
-4 7 308 215 166 125 
-3 7 308 212 163 122 
-3 7 309 210 162 126 
-2 7 310 205 157 121 
-2 7 311 202 147 116 
-1 7 312 195 140 109 
-1 7 313 180 122 98 
-8 8 320 206 150 113 
-8 8 313 202 146 109 
-7 8 309 206 148 111 
-6 8 308 210 152 115 
-6 8 306 219 157 116 
-5 8 306 225 163 122 
-5 8 305 225 172 132 
-4 8 306 227 174 134 
-4 8 306 223 174 133 
-3 8 306 221 172 131 
-3 8 307 217 169 131 
-2 8 307 209 161 123 
-2 8 308 205 151 117 
-1 8 309 198 144 110 
-1 8 310 168 112 87 
-9 9 318 212 150 109 
-8 8 311 209 150 108 
-7 8 308 206 147 105 
-7 8 306 214 155 115 
-6 8 305 219 160 120 
-6 8 304 227 166 122 
-5 8 304 230 169 125 
-5 8 304 226 173 133 
-4 8 304 226 173 133 
-4 8 304 223 171 131 
-3 8 305 222 170 130 
-3 8 305 223 173 136 
-2 8 306 213 163 126 
-2 8 306 204 150 114 
-1 8 307 204 150 114 
-1 8 307 179 125 97 
-9 9 316 207 145 104 
-9 9 311 209 147 106 
-8 9 307 210 149 104 
-7 9 305 208 147 102 
-7 9 304 212 153 111 
-6 9 303 219 160 118 
-6 9 303 229 168 123 
-5 9 302 232 171 126 
-5 9 302 226 173 131 
-4 9 303 225 172 130 
-4 9 303 225 172 130 
-3 9 303 224 171 129 
-3 9 304 223 171 132 
-2 9 305 217 165 126 
-2 9 305 206 150 115 
-1 9 305 207 151 116 
-1 9 306 199 145 117 
-10 10 317 206 146 110 
-9 9 310 205 145 108 
-8 9 307 207 147 110 
-8 9 305 210 149 104 
-7 9 303 210 149 104 
-7 9 302 214 155 113 
-6 9 302 220 161 119 
-6 9 301 228 167 123 
-5 9 301 232 171 127 
-5 9 301 227 172 133 
-4 9 302 225 170 131 
-4 9 302 224 166 128 
-3 9 303 222 164 126 
-3 9 303 220 164 127 
-2 9 304 218 162 125 
-2 9 305 212 153 119 
-1 9 306 207 148 114 
-1 9 307 202 148 120 
0 9 308 193 139 111 
0 9 309 150 126 126 
-10 10 316 204 144 110 
-9 10 309 204 144 110 
-9 10 306 204 146 109 
-8 10 304 205 147 110 
-8 10 303 207 148 106 
-7 10 302 208 149 107 
-7 10 301 214 156 118 
-6 10 301 216 158 120 
-6 10 301 223 162 118 
-5 10 301 228 167 123 
-5 10 302 226 168 130 
-4 10 303 224 166 128 
-4 10 303 220 160 123 
-3 10 303 217 157 120 
-3 10 305 221 162 128 
-2 10 305 212 153 119 
-2 10 306 211 152 120 
-1 10 307 207 148 116 
-1 10 308 202 148 122 
0 10 309 203 149 123 
0 10 311 156 132 132 
-10 10 309 202 143 109 
-9 10 305 203 144 110 
-9 10 304 205 147 110 
-8 10 303 205 147 110 
-8 10 303 204 149 110 
-7 10 302 205 150 111 
-7 10 302 215 159 122 
-6 10 302 215 159 122 
-6 10 302 223 161 120 
-5 10 303 226 164 123 
-5 10 303 226 166 129 
-4 10 304 222 162 125 
-4 10 305 219 156 121 
-3 10 305 216 153 118 
-3 10 306 216 155 124 
-2 10 307 203 142 111 
-2 10 308 200 141 111 
-1 10 309 202 143 113 
-1 10 310 200 146 120 
0 10 311 207 153 127 
0 10 312 167 141 142 
1 10 313 150 124 125 
-11 11 311 202 143 111 
-10 11 306 202 144 107 
-9 11 304 204 146 109 
-9 11 304 206 150 113 
-8 11 303 207 151 114 
-8 11 303 208 154 118 
-7 11 303 210 156 120 
-7 11 302 213 161 124 
-6 11 303 211 159 122 
-6 11 303 213 154 114 
-5 11 304 209 150 110 
-5 11 305 200 140 104 
-4 11 305 189 129 93 
-4 11 306 182 119 84 
-3 11 307 179 116 81 
-3 11 308 177 116 87 
-2 11 309 171 110 81 
-2 11 310 164 104 76 
-1 11 311 166 106 78 
-1 11 312 168 114 90 
0 11 313 179 125 101 
0 11 314 154 128 129 
1 11 315 150 124 125 
-11 12 316 198 138 104 
-10 11 309 200 140 106 
-10 11 306 206 148 110 
-9 11 305 211 153 115 
-9 11 305 210 157 126 
-8 11 304 208 155 124 
-8 11 304 199 151 115 
-7 11 304 191 143 107 
-7 11 304 185 132 101 
-6 11 304 175 122 91 
-6 11 305 165 110 79 
-5 11 306 157 102 71 
-5 11 307 150 95 65 
-4 11 307 143 88 58 
-4 11 308 138 84 58 
-3 11 309 136 82 56 
-3 11 310 133 81 60 
-2 11 311 132 80 59 
-2 11 312 128 81 65 
-1 12 314 127 80 64 
-1 12 315 123 80 71 
0 12 316 131 88 79 
0 12 317 144 109 103 
1 12 318 159 124 118 
-11 12 314 196 137 107 
-10 12 309 196 137 107 
-10 12 307 195 139 106 
-9 12 306 193 137 104 
-9 12 305 181 129 105 
-8 12 305 170 118 94 
-8 12 306 158 109 79 
-7 12 306 150 101 71 
-7 12 306 137 89 69 
-6 12 306 132 84 64 
-6 12 307 129 78 57 
-5 12 308 127 76 55 
-5 12 309 126 75 56 
-4 12 310 127 76 57 
-4 12 312 125 78 60 
-3 12 312 123 76 58 
-3 12 313 119 75 62 
-2 12 314 117 73 60 
-2 12 316 114 74 64 
-1 12 317 114 74 64 
-1 12 318 112 79 72 
0 12 319 123 90 83 
0 12 320 139 111 108 
1 12 321 154 126 123 
-11 13 316 176 120 95 
-10 12 309 170 114 89 
-10 12 308 159 108 79 
-9 12 307 151 100 71 
-9 12 307 141 90 71 
-8 12 307 134 83 64 
-8 12 307 127 79 57 
-7 12 308 125 77 55 
-7 12 308 122 78 67 
-6 12 309 121 77 66 
-6 12 310 123 76 66 
-5 12 311 122 75 65 
-5 13 313 119 75 64 
-5 13 314 121 77 66 
-4 13 316 117 77 67 
-4 13 317 113 73 63 
-3 13 318 112 78 69 
-2 13 319 107 73 64 
-2 13 321 102 73 67 
-1 13 322 111 82 76 
-1 13 323 123 99 95 
0 13 323 138 114 110 
0 13 324 143 122 121 
-11 13 319 140 89 68 
-11 13 311 136 85 64 
-10 13 310 130 84 61 
-9 13 309 128 82 59 
-9 13 309 127 81 68 
-8 13 310 126 80 67 
-8 13 311 127 80 64 
-8 13 312 127 80 64 
-7 13 313 118 78 66 
-7 13 314 118 78 66 
-6 13 315 122 79 70 
-6 13 316 121 78 69 
-5 13 317 116 76 68 
-5 13 318 116 76 68 
-4 13 319 112 78 69 
-4 13 321 112 78 69 
-3 13 322 108 79 73 
-3 13 322 118 89 83 
-2 13 323 127 103 99 
-1 14 324 137 113 109 
-11 14 317 129 83 68 
-10 14 314 125 84 66 
-10 14 313 125 84 66 
-9 14 313 125 82 75 
-9 14 313 123 80 73 
-8 14 315 123 79 68 
-8 14 315 122 78 67 
-7 14 317 118 80 67 
-7 14 318 117 79 66 
-6 14 319 116 80 68 
-6 14 320 118 82 70 
-5 14 320 117 83 74 
-5 14 321 118 84 75 
-4 14 322 119 90 84 
-4 14 323 125 96 90 
-3 14 324 132 108 106 
-3 14 324 137 113 111 
-10 14 318 120 82 69 
-10 14 317 118 80 67 
-9 14 317 116 76 74 
-9 14 317 115 75 73 
-8 14 318 117 77 69 
-8 14 319 119 79 71 
-7 14 319 120 88 77 
-7 14 320 120 88 77 
-6 14 321 120 90 82 
-6 14 322 125 95 87 
-5 14 322 129 101 97 
-5 14 322 134 106 102 
-10 15 321 114 81 72 
-9 15 321 116 82 81 
-9 15 321 122 88 87 
-8 15 320 130 97 92 
-8 15 320 138 105 100 
-9 15 320 137 108 110 
-9 15 318 139 110 112 
