ply
format ascii 1.0
comment PCL generated
element vertex 1401
property float x
property float y
property float z
element camera 0
property float view_px
property float view_py
property float view_pz
property float x_axisx
property float x_axisy
property float x_axisz
property float y_axisx
property float y_axisy
property float y_axisz
property float z_axisx
property float z_axisy
property float z_axisz
property float focal
property float scalex
property float scaley
property float centerx
property float centery
property int viewportx
property int viewporty
property float k1
property float k2
end_header
0.56389219 0.028405298 -1.164
0.56991696 0.028332086 -1.161
0.57590318 0.028258881 -1.1580001
0.58134687 0.028161265 -1.154
0.58775955 0.02811246 -1.1520001
0.59311301 0.028014846 -1.148
0.59998435 0.027990444 -1.1470001
0.60684276 0.027966039 -1.146
-0.7272532 0.028649503 -1.595
-0.69944859 0.027948983 -1.5560001
-0.68455231 0.027751399 -1.5450001
-0.68246025 0.028074717 -1.5630001
-0.67798537 0.028308224 -1.5760001
-0.67080039 0.028433958 -1.5830001
-0.66728109 0.028721351 -1.5990001
-0.66807532 0.029206326 -1.626
-0.6592198 0.029278176 -1.6300001
-0.64991474 0.029332062 -1.6330001
-0.63743865 0.029242251 -1.628
-0.625027 0.02915244 -1.623
-0.61267972 0.029062631 -1.618
-0.59965247 0.028936896 -1.6110001
-0.58488649 0.028721351 -1.5990001
-0.57243109 0.028613579 -1.5930001
-0.56040591 0.028523769 -1.5880001
-0.5477522 0.028398035 -1.5810001
-0.53688878 0.02836211 -1.5790001
-0.5250504 0.028272301 -1.5740001
-0.51262212 0.028146565 -1.567
-0.50060475 0.028038794 -1.5610001
-0.48897892 0.027948983 -1.5560001
-0.47834092 0.027913058 -1.554
-0.4677287 0.027877133 -1.552
-0.45625743 0.027787324 -1.5470001
-0.44456217 0.027679553 -1.5410001
-0.43266204 0.027553817 -1.534
-0.42057651 0.02741012 -1.526
-0.40832493 0.027248463 -1.5170001
-0.39802831 0.027212538 -1.5150001
-0.38827002 0.027212538 -1.5150001
-0.37851176 0.027212538 -1.5150001
-0.36826667 0.027176615 -1.5130001
-0.35662562 0.027032917 -1.5050001
-0.34600964 0.026961068 -1.501
-0.33589339 0.026925145 -1.4990001
-0.32580289 0.026889222 -1.4970001
-0.31573817 0.026853297 -1.4950001
-0.3056992 0.026817372 -1.493
-0.29568598 0.026781447 -1.4910001
-0.28569856 0.026745524 -1.4890001
-0.27518061 0.026655713 -1.4840001
-0.265264 0.02661979 -1.4820001
-0.25502807 0.02654794 -1.478
-0.2445115 0.02644017 -1.4720001
-0.23391248 0.026314434 -1.465
-0.22355694 0.026206663 -1.4590001
-0.21357222 0.026134813 -1.455
-0.20363902 0.026062965 -1.4510001
-0.19375736 0.025991116 -1.447
-0.18367232 0.025883345 -1.4410001
-0.17426965 0.025865382 -1.4400001
-0.16430698 0.025757609 -1.434
-0.15420534 0.025613913 -1.4260001
-0.14410503 0.025452254 -1.4170001
-0.13469221 0.025398368 -1.414
-0.12540686 0.025362445 -1.4120001
-0.11647677 0.025398368 -1.414
-0.10736904 0.025398368 -1.414
-0.098122336 0.025362445 -1.4120001
-0.088901393 0.02532652 -1.4100001
-0.07930994 0.025164861 -1.401
-0.06993477 0.025039127 -1.3940001
-0.060693506 0.024931354 -1.388
-0.051492244 0.02480562 -1.381
-0.042350315 0.024661923 -1.373
-0.033409059 0.024590075 -1.3690001
-0.024573222 0.024572112 -1.368
-0.0157157 0.024500266 -1.3640001
-0.0069198688 0.024464341 -1.3620001
0.0018488382 0.024410455 -1.3590001
0.010578898 0.024356568 -1.3560001
0.019284554 0.024320645 -1.3540001
0.027902395 0.024230834 -1.3490001
0.036510073 0.024176948 -1.3460001
0.045045536 0.024105098 -1.342
0.053569485 0.024051214 -1.3390001
0.061961886 0.023961404 -1.3340001
0.070395656 0.023907516 -1.3310001
0.078790776 0.02385363 -1.3280001
0.087015703 0.023763821 -1.3230001
0.095320657 0.023709934 -1.3200001
0.10358696 0.023656048 -1.317
0.1118997 0.023620123 -1.3150001
0.12018669 0.0235842 -1.3130001
0.12854588 0.023566237 -1.312
0.13699661 0.023566237 -1.312
0.14522563 0.023530314 -1.3100001
0.15319428 0.023458466 -1.3060001
0.16135888 0.023422539 -1.304
0.16936755 0.023368655 -1.3010001
0.17733756 0.023314768 -1.2980001
0.18526891 0.023260882 -1.2950001
0.19331114 0.023224959 -1.2930001
0.20101568 0.023153109 -1.289
0.20931827 0.023153109 -1.289
0.21728322 0.023117185 -1.2870001
0.2250471 0.023063298 -1.284
0.23259066 0.022991452 -1.2800001
0.23933004 0.022847755 -1.2720001
0.24674474 0.022775905 -1.268
0.25451002 0.022739982 -1.266
0.26245698 0.022722021 -1.2650001
0.27017713 0.022686094 -1.263
0.27765119 0.02263221 -1.2600001
0.28554016 0.022614248 -1.2590001
0.2929498 0.022560362 -1.256
0.30080017 0.0225424 -1.2550001
0.30839148 0.022506474 -1.253
0.31570449 0.022452587 -1.25
0.32349691 0.022434628 -1.2490001
0.33048007 0.022362778 -1.245
0.33659601 0.022237044 -1.238
0.34290016 0.022129273 -1.2320001
0.34855747 0.021985576 -1.2240001
0.35469407 0.021877803 -1.2180001
0.36194408 0.021841878 -1.2160001
0.36886418 0.021787992 -1.2130001
0.37574562 0.021734105 -1.21
0.3832224 0.021716144 -1.2090001
0.3906863 0.021698182 -1.2080001
0.39780742 0.021662258 -1.2060001
0.40523911 0.021644296 -1.205
0.41265792 0.021626335 -1.2040001
0.41936544 0.021572448 -1.2010001
0.42603436 0.021518562 -1.1980001
0.43230253 0.021446712 -1.194
0.4377822 0.021338942 -1.1880001
0.44355953 0.02124913 -1.1830001
0.45003521 0.021195244 -1.1800001
0.45802352 0.021213207 -1.1810001
0.4656305 0.021213207 -1.1810001
0.47203532 0.021159321 -1.1780001
0.47758716 0.02106951 -1.1730001
0.4839018 0.021015624 -1.1700001
0.49143791 0.021015624 -1.1700001
0.49940044 0.021033585 -1.171
0.50694299 0.021033585 -1.171
0.51404619 0.021015624 -1.1700001
0.52069074 0.020979701 -1.1680001
0.5268572 0.020925812 -1.1650001
0.53252637 0.020853965 -1.161
0.53907424 0.02081804 -1.159
0.54653949 0.02081804 -1.159
0.55352676 0.02080008 -1.1580001
0.5605011 0.020782117 -1.1570001
0.56648076 0.02072823 -1.154
0.57291919 0.020692306 -1.1520001
0.57882804 0.020638419 -1.149
0.58469826 0.020584533 -1.146
0.59052974 0.020530647 -1.143
0.5973689 0.020512685 -1.1420001
0.60419512 0.020494722 -1.141
-0.67922026 0.017408174 -1.511
-0.67037392 0.017431218 -1.5130001
-0.6728543 0.017753804 -1.5410001
-0.67325318 0.018030306 -1.5650001
-0.6720717 0.018272247 -1.5860001
-0.66561186 0.018375935 -1.595
-0.65903616 0.018479625 -1.6040001
-0.65274888 0.018594833 -1.6140001
-0.64513886 0.01867548 -1.6210001
-0.63548094 0.018698523 -1.623
-0.625027 0.018698523 -1.623
-0.61381572 0.01867548 -1.6210001
-0.60151356 0.018617876 -1.6160001
-0.5867154 0.018479625 -1.6040001
-0.57135302 0.018318331 -1.59
-0.5579356 0.018214643 -1.5810001
-0.54532701 0.018133996 -1.5740001
-0.53212851 0.018030306 -1.5650001
-0.52138102 0.018007265 -1.5630001
-0.51065934 0.017984223 -1.5610001
-0.49835986 0.017903576 -1.554
-0.48615062 0.017822929 -1.5470001
-0.47495502 0.017776845 -1.5430001
-0.46381086 0.017730761 -1.539
-0.45330814 0.01770772 -1.5370001
-0.4425427 0.017673157 -1.534
-0.43040565 0.017580988 -1.526
-0.41809607 0.0174773 -1.5170001
-0.40670991 0.017408174 -1.511
-0.39540106 0.017339049 -1.5050001
-0.38468203 0.017292965 -1.501
-0.37501392 0.017292965 -1.501
-0.36534584 0.017292965 -1.501
-0.354256 0.017223841 -1.4950001
-0.34416547 0.017200798 -1.493
-0.33365262 0.017154714 -1.4890001
-0.32340887 0.017120151 -1.4860001
-0.31341499 0.017097108 -1.4840001
-0.3038564 0.017097108 -1.4840001
-0.29429778 0.017097108 -1.4840001
-0.28435546 0.017074067 -1.4820001
-0.274068 0.017027983 -1.478
-0.26419005 0.017004941 -1.4760001
-0.2539928 0.016958857 -1.4720001
-0.24368095 0.016901253 -1.4670001
-0.23263514 0.016786043 -1.457
-0.22202466 0.016693875 -1.4490001
-0.2118108 0.016624749 -1.4430001
-0.20209523 0.016590185 -1.4400001
-0.19201662 0.016521061 -1.434
-0.18227024 0.016474977 -1.4300001
-0.17281741 0.016451934 -1.4280001
-0.16304661 0.01639433 -1.4230001
-0.15323208 0.016325204 -1.4170001
-0.14359654 0.0162676 -1.4120001
-0.13412067 0.016221516 -1.4080001
-0.12469634 0.016175432 -1.404
-0.11581777 0.016198473 -1.406
-0.10676157 0.016198473 -1.406
-0.097705387 0.016198473 -1.406
-0.088460036 0.016163912 -1.4030001
-0.078970283 0.016071744 -1.3950001
-0.069583595 0.015979575 -1.3870001
-0.060387414 0.015910449 -1.381
-0.051193953 0.015818281 -1.373
-0.042196088 0.015760677 -1.368
-0.033287041 0.015714593 -1.3640001
-0.024465445 0.015691552 -1.3620001
-0.015635047 0.015633946 -1.3570001
-0.0068893847 0.015622426 -1.3560001
0.0018420359 0.015599384 -1.3540001
0.01053989 0.015564821 -1.3510001
0.019184856 0.015518738 -1.3470001
0.027736923 0.015449611 -1.3410001
0.036265947 0.015403527 -1.337
0.044743441 0.015357443 -1.3330001
0.05324943 0.015334402 -1.3310001
0.061590299 0.015276797 -1.3260001
0.069972537 0.015242234 -1.3230001
0.078197472 0.015184629 -1.3180001
0.086357988 0.015127025 -1.3130001
0.094598532 0.015092461 -1.3100001
0.10295773 0.01508094 -1.309
0.11121894 0.015057898 -1.307
0.11963747 0.015057898 -1.307
0.128056 0.015057898 -1.307
0.13647453 0.015057898 -1.307
0.1447822 0.015046378 -1.3060001
0.15295967 0.015023335 -1.304
0.1611114 0.015000293 -1.302
0.16897701 0.01495421 -1.2980001
0.17692767 0.014919647 -1.2950001
0.18483971 0.014885084 -1.2920001
0.19226459 0.014815957 -1.286
0.20008002 0.014781396 -1.2830001
0.20785679 0.014746833 -1.2800001
0.21576376 0.014723791 -1.2780001
0.22382021 0.014712269 -1.2770001
0.23150037 0.014677706 -1.274
0.23876558 0.014620102 -1.2690001
0.24635555 0.014585539 -1.266
0.25390691 0.014550976 -1.263
0.26141959 0.014516413 -1.2600001
0.26932147 0.014504892 -1.2590001
0.27721047 0.01449337 -1.258
0.28485978 0.01447033 -1.256
0.29201683 0.014424246 -1.2520001
0.29888272 0.014366641 -1.2470001
0.30593026 0.014320556 -1.243
0.31317887 0.014285993 -1.24
0.32090685 0.014274473 -1.2390001
0.32809106 0.01423991 -1.2360001
0.33469281 0.014182305 -1.2310001
0.34095183 0.014113179 -1.225
0.34770316 0.014067096 -1.2210001
0.35440287 0.014021011 -1.217
0.36134878 0.01398645 -1.2140001
0.36856008 0.013963406 -1.212
0.37512454 0.013917323 -1.2080001
0.38227147 0.013894281 -1.2060001
0.38874578 0.013848197 -1.202
0.39582828 0.013825155 -1.2
0.4025487 0.013790593 -1.197
0.4092305 0.013756029 -1.194
0.41622281 0.013732987 -1.192
0.42318937 0.013709946 -1.1900001
0.43049222 0.013698424 -1.189
0.4359397 0.0136293 -1.1830001
0.44205973 0.013583215 -1.179
0.44812828 0.013537131 -1.1750001
0.45530871 0.01352561 -1.174
0.46287057 0.01352561 -1.174
0.47003177 0.013514089 -1.1730001
0.47595853 0.013468005 -1.169
0.48307464 0.013456485 -1.1680001
0.49059787 0.013456485 -1.1680001
0.49812105 0.013456485 -1.1680001
0.50607717 0.013468005 -1.169
0.5131675 0.013456485 -1.1680001
0.51890749 0.013410401 -1.164
0.5250482 0.013375837 -1.161
0.53115034 0.013341276 -1.1580001
0.5372138 0.013306713 -1.1550001
0.54371011 0.013283669 -1.153
0.5506587 0.013272149 -1.1520001
0.55662555 0.013237586 -1.149
0.56304461 0.013214544 -1.1470001
0.5699352 0.013203023 -1.146
0.57580543 0.01316846 -1.143
0.58214724 0.013145418 -1.141
0.58794653 0.013110856 -1.138
0.59475344 0.013099335 -1.1370001
0.60207701 0.013099335 -1.1370001
-0.67832124 0.0076655024 -1.5090001
-0.67037392 0.0076858224 -1.5130001
-0.66368496 0.0077213813 -1.5200001
-0.65991718 0.0077924989 -1.534
-0.65681654 0.0078737764 -1.5500001
-0.6493367 0.0079042558 -1.5560001
-0.64301223 0.0079499744 -1.5650001
-0.64223373 0.0080668107 -1.5880001
-0.63638312 0.00812269 -1.5990001
-0.62608385 0.00812269 -1.5990001
-0.61578447 0.00812269 -1.5990001
-0.60662115 0.0081379293 -1.6020001
-0.59518582 0.00812269 -1.5990001
-0.58269179 0.0080922106 -1.5930001
-0.56811899 0.0080312518 -1.5810001
-0.55546528 0.007995693 -1.5740001
-0.54151595 0.0079398146 -1.5630001
-0.52906835 0.0079042558 -1.5560001
-0.51771164 0.0078839362 -1.552
-0.50706083 0.0078737764 -1.5500001
-0.49483225 0.0078382175 -1.5430001
-0.48300809 0.0078077386 -1.5370001
-0.47156906 0.0077823391 -1.5320001
-0.46170127 0.0077823391 -1.5320001
-0.45065376 0.00776202 -1.5280001
-0.44023478 0.0077518597 -1.526
-0.42927748 0.0077315406 -1.5220001
-0.41699365 0.0076858224 -1.5130001
-0.40509495 0.0076451832 -1.5050001
-0.3938247 0.0076147038 -1.4990001
-0.38160664 0.0075639053 -1.4890001
-0.37076661 0.0075385063 -1.4840001
-0.36072123 0.0075283465 -1.4820001
-0.35117552 0.0075283465 -1.4820001
-0.34162977 0.0075283465 -1.4820001
-0.33208406 0.0075283465 -1.4820001
-0.32210302 0.0075181867 -1.48
-0.31172544 0.0074978676 -1.4760001
-0.30221835 0.0074978676 -1.4760001
-0.29271129 0.0074978676 -1.4760001
-0.28282046 0.0074877078 -1.4740001
-0.27276999 0.0074724681 -1.4710001
-0.26293713 0.0074623083 -1.4690001
-0.25243986 0.0074318293 -1.4630001
-0.24201985 0.00740135 -1.457
-0.23071915 0.0073403916 -1.4450001
-0.22003272 0.0072946735 -1.4360001
-0.20990258 0.0072641941 -1.4300001
-0.20013042 0.0072438749 -1.4260001
-0.1905437 0.0072286353 -1.4230001
-0.18112309 0.0072184755 -1.4210001
-0.17172821 0.0072083152 -1.419
-0.16235913 0.0071981559 -1.4170001
-0.15269139 0.0071727564 -1.4120001
-0.14298636 0.007142277 -1.406
-0.1336444 0.0071270382 -1.4030001
-0.1244299 0.0071168779 -1.401
-0.11524116 0.0071067181 -1.399
-0.10607818 0.0070965588 -1.3970001
-0.096940979 0.007086399 -1.3950001
-0.087640382 0.007061 -1.3900001
-0.078290969 0.0070254407 -1.383
-0.069132075 0.0070000412 -1.378
-0.060037594 0.0069746422 -1.373
-0.05100752 0.0069492427 -1.368
-0.04207271 0.0069289235 -1.3640001
-0.033238232 0.0069187642 -1.3620001
-0.024375631 0.0068933647 -1.3570001
-0.015600482 0.006878125 -1.3540001
-0.0068690623 0.0068679657 -1.3520001
0.0018352338 0.006852726 -1.3490001
0.010485279 0.0068273265 -1.3440001
0.019042429 0.0067917672 -1.337
0.027530085 0.0067612883 -1.3310001
0.036021825 0.0067460486 -1.3280001
0.044508483 0.0067358892 -1.3260001
0.052929372 0.0067206495 -1.3230001
0.061358057 0.0067104897 -1.3210001
0.069655202 0.0066901702 -1.317
0.077841491 0.0066647707 -1.312
0.086094901 0.006649531 -1.309
0.094381891 0.0066393716 -1.307
0.10272177 0.0066342922 -1.3060001
0.11079346 0.0066139721 -1.302
0.11908826 0.0066088927 -1.3010001
0.12746814 0.0066088927 -1.3010001
0.13563918 0.0065987324 -1.299
0.14389531 0.006593653 -1.2980001
0.15202127 0.0065834932 -1.296
0.16024521 0.0065784133 -1.2950001
0.16832609 0.006568254 -1.2930001
0.17624456 0.0065530143 -1.2900001
0.18398131 0.0065326947 -1.286
0.19106856 0.006492056 -1.2780001
0.19883244 0.0064768163 -1.2750001
0.20688245 0.0064717364 -1.274
0.21475078 0.006461577 -1.2720001
0.22276857 0.0064564967 -1.271
0.2304101 0.006441257 -1.268
0.23763666 0.0064158579 -1.263
0.24557719 0.0064107785 -1.2620001
0.25310278 0.0063955388 -1.2590001
0.26058969 0.0063802991 -1.256
0.26846582 0.0063752197 -1.2550001
0.27610868 0.0063650594 -1.253
0.28349897 0.0063498197 -1.25
0.29061741 0.0063295006 -1.2460001
0.29720494 0.0062990212 -1.24
0.30396128 0.0062736217 -1.235
0.31090581 0.0062533026 -1.2310001
0.31883481 0.0062533026 -1.2310001
0.32596749 0.0062380629 -1.228
0.3327896 0.0062177437 -1.2240001
0.33956021 0.0061974241 -1.22
0.34627929 0.006177105 -1.2160001
0.35294682 0.0061567849 -1.212
0.35986051 0.0061415462 -1.2090001
0.36734372 0.0061364658 -1.2080001
0.37419295 0.0061212261 -1.205
0.38100356 0.0061059864 -1.202
0.38712871 0.0060805874 -1.197
0.3925297 0.0060450286 -1.1900001
0.39918572 0.0060297889 -1.187
0.40546039 0.0060094697 -1.1830001
0.41238186 0.0059993099 -1.1810001
0.41963318 0.00599423 -1.1800001
0.42650956 0.0059840702 -1.1780001
0.43336013 0.0059739104 -1.176
0.4398101 0.0059586712 -1.1730001
0.44583994 0.0059383516 -1.169
0.45298177 0.0059332717 -1.1680001
0.46050501 0.0059332717 -1.1680001
0.46802822 0.0059332717 -1.1680001
0.47473708 0.0059231119 -1.166
0.48224741 0.0059231119 -1.166
0.48933777 0.0059180325 -1.1650001
0.49641514 0.0059129521 -1.164
0.50391257 0.0059129521 -1.164
0.51097071 0.0059078727 -1.1630001
0.51712435 0.005892633 -1.1600001
0.52323925 0.0058773933 -1.1570001
0.52885693 0.0058570737 -1.153
0.53488821 0.0058418345 -1.1500001
0.54182386 0.0058367546 -1.149
0.54826874 0.0058265948 -1.1470001
0.55420333 0.0058113551 -1.1440001
0.56059021 0.0058011957 -1.1420001
0.56744862 0.0057961154 -1.141
0.57328659 0.0057808757 -1.138
0.57959616 0.0057707164 -1.136
0.58639663 0.0057656369 -1.1350001
0.59318417 0.0057605566 -1.1340001
0.60048836 0.0057605566 -1.1340001
-0.71608067 -0.0021684726 -1.5930001
-0.68765384 -0.0021126615 -1.552
-0.66455823 -0.0020718239 -1.5220001
-0.65002275 -0.0020568501 -1.511
-0.63859522 -0.0020514051 -1.5070001
-0.63222694 -0.0020622953 -1.5150001
-0.63150781 -0.0020922427 -1.5370001
-0.63212299 -0.0021276353 -1.5630001
-0.62921935 -0.0021521377 -1.5810001
-0.61903596 -0.0021521377 -1.5810001
-0.60692704 -0.0021453316 -1.5760001
-0.59677583 -0.0021453316 -1.5760001
-0.5843913 -0.0021371639 -1.5700001
-0.57098675 -0.0021249128 -1.5610001
-0.55985415 -0.002120829 -1.5580001
-0.54911309 -0.0021181065 -1.5560001
-0.53770489 -0.0021126615 -1.552
-0.52532816 -0.0021031327 -1.5450001
-0.51404238 -0.0020976877 -1.5410001
-0.50182664 -0.0020881589 -1.534
-0.49002182 -0.0020799914 -1.5280001
-0.47892278 -0.0020745464 -1.524
-0.46972218 -0.0020772689 -1.526
-0.4592903 -0.0020745464 -1.524
-0.44681966 -0.0020622953 -1.5150001
-0.43648446 -0.0020595728 -1.5130001
-0.42673904 -0.0020595728 -1.5130001
-0.41644239 -0.0020568501 -1.511
-0.40455657 -0.0020459602 -1.503
-0.39172289 -0.0020296252 -1.4910001
-0.37930006 -0.0020146514 -1.48
-0.36826819 -0.002006484 -1.4740001
-0.35877401 -0.002006484 -1.4740001
-0.34927982 -0.002006484 -1.4740001
-0.33978561 -0.002006484 -1.4740001
-0.33029142 -0.002006484 -1.4740001
-0.32036197 -0.0020037615 -1.4720001
-0.31066945 -0.0020024001 -1.4710001
-0.30037558 -0.0019969551 -1.4670001
-0.29052982 -0.0019942326 -1.465
-0.28032613 -0.0019887877 -1.4610001
-0.2705448 -0.0019860652 -1.4590001
-0.26078922 -0.0019833425 -1.457
-0.25071436 -0.0019778977 -1.4530001
-0.24002656 -0.0019670075 -1.4450001
-0.22928216 -0.0019547564 -1.4360001
-0.21850047 -0.0019411439 -1.4260001
-0.20858154 -0.0019343377 -1.4210001
-0.19886732 -0.0019288926 -1.4170001
-0.18947248 -0.0019261701 -1.4150001
-0.18035832 -0.0019261701 -1.4150001
-0.17124414 -0.0019261701 -1.4150001
-0.16201539 -0.0019248088 -1.414
-0.15225884 -0.0019166414 -1.4080001
-0.14278297 -0.0019111963 -1.404
-0.13345388 -0.0019071125 -1.401
-0.12407464 -0.0019016676 -1.3970001
-0.11466454 -0.0018948613 -1.3920001
-0.10531885 -0.0018880551 -1.3870001
-0.09596809 -0.0018798875 -1.381
-0.086631566 -0.0018703588 -1.3740001
-0.077498436 -0.0018635526 -1.3690001
-0.068530053 -0.0018594688 -1.3660001
-0.059644051 -0.0018567463 -1.3640001
-0.050783809 -0.0018540239 -1.3620001
-0.041980173 -0.0018526625 -1.3610001
-0.03309181 -0.0018458563 -1.3560001
-0.024267852 -0.00183905 -1.3510001
-0.015542873 -0.0018363276 -1.3490001
-0.0068385778 -0.0018322438 -1.3460001
0.0018243502 -0.0018254375 -1.3410001
0.010399463 -0.0018145475 -1.3330001
0.018914245 -0.0018077412 -1.3280001
0.027364615 -0.001800935 -1.3230001
0.035750575 -0.0017941288 -1.3180001
0.044239953 -0.0017941288 -1.3180001
0.052689325 -0.0017927674 -1.317
0.061079368 -0.0017900449 -1.3150001
0.069443651 -0.0017873225 -1.3130001
0.077722825 -0.0017832387 -1.3100001
0.085963361 -0.001779155 -1.307
0.09430968 -0.0017777937 -1.3060001
0.10240715 -0.0017723487 -1.302
0.11053818 -0.0017682649 -1.299
0.11853904 -0.0017628199 -1.2950001
0.12658635 -0.0017587362 -1.2920001
0.13469942 -0.0017560137 -1.2900001
0.14289758 -0.0017546525 -1.289
0.15084827 -0.0017505686 -1.286
0.15888405 -0.0017478461 -1.284
0.16702427 -0.001746485 -1.2830001
0.17501494 -0.0017437624 -1.281
0.1828368 -0.0017396788 -1.2780001
0.19002201 -0.0017301498 -1.271
0.19774079 -0.0017260661 -1.268
0.20542097 -0.0017219825 -1.2650001
0.21323131 -0.0017192599 -1.263
0.22136642 -0.0017192599 -1.263
0.22931984 -0.0017178988 -1.2620001
0.23688406 -0.0017138149 -1.2590001
0.24440962 -0.0017097312 -1.256
0.25189656 -0.0017056473 -1.253
0.25975978 -0.0017042862 -1.2520001
0.26739621 -0.0017015636 -1.25
0.27478653 -0.00169748 -1.2470001
0.28236496 -0.0016947574 -1.245
0.28921795 -0.0016879512 -1.24
0.29552716 -0.0016784224 -1.233
0.30223843 -0.0016716161 -1.228
0.30939043 -0.0016675324 -1.225
0.31702179 -0.0016661712 -1.2240001
0.32437479 -0.0016634485 -1.222
0.33170205 -0.0016607261 -1.22
0.33872521 -0.0016566423 -1.217
0.34542498 -0.0016511974 -1.2130001
0.35207319 -0.0016457525 -1.2090001
0.35956284 -0.0016443911 -1.2080001
0.36643144 -0.0016403074 -1.205
0.37326133 -0.0016362236 -1.202
0.37910172 -0.0016280562 -1.1960001
0.38454136 -0.0016185273 -1.189
0.39055055 -0.001611721 -1.184
0.39683166 -0.0016062761 -1.1800001
0.40306118 -0.001600831 -1.176
0.41028675 -0.0015994699 -1.1750001
0.41714382 -0.0015967474 -1.1730001
0.42397511 -0.0015940248 -1.171
0.43078062 -0.0015913023 -1.169
0.43793535 -0.0015899412 -1.1680001
0.44431442 -0.0015858574 -1.1650001
0.45143044 -0.0015844961 -1.164
0.4589279 -0.0015844961 -1.164
0.46642536 -0.0015844961 -1.164
0.47392279 -0.0015844961 -1.164
0.48100668 -0.0015831349 -1.1630001
0.4872376 -0.0015790511 -1.1600001
0.49385631 -0.0015763287 -1.1580001
0.50001639 -0.0015722449 -1.1550001
0.50657713 -0.0015695223 -1.153
0.51222056 -0.0015640773 -1.149
0.51871693 -0.0015613548 -1.1470001
0.52564615 -0.0015599935 -1.146
0.53302771 -0.0015599935 -1.146
0.53946608 -0.0015572711 -1.1440001
0.54587871 -0.0015545486 -1.1420001
0.55274999 -0.0015531873 -1.141
0.55813575 -0.0015477424 -1.1370001
0.56446469 -0.0015450199 -1.1350001
0.57076776 -0.0015422973 -1.133
0.57653493 -0.0015382135 -1.13
0.58329672 -0.0015368523 -1.1290001
0.59004563 -0.001535491 -1.128
0.5973112 -0.001535491 -1.128
-0.74457967 -0.012741251 -1.6330001
-0.72731858 -0.012624214 -1.618
-0.70360458 -0.012390144 -1.5880001
-0.6728543 -0.012023434 -1.5410001
-0.64830196 -0.011758153 -1.5070001
-0.63520521 -0.011695734 -1.4990001
-0.62554997 -0.011695734 -1.4990001
-0.621647 -0.011804968 -1.5130001
-0.62322557 -0.012023434 -1.5410001
-0.62484145 -0.012249702 -1.5700001
-0.61629516 -0.012280911 -1.5740001
-0.60615683 -0.012280911 -1.5740001
-0.59526116 -0.012265306 -1.572
-0.58104128 -0.012179481 -1.5610001
-0.56769466 -0.012109259 -1.552
-0.5551827 -0.012054643 -1.5450001
-0.54240799 -0.011992224 -1.5370001
-0.53146863 -0.011968817 -1.534
-0.52260804 -0.011992224 -1.5370001
-0.510373 -0.011937608 -1.5300001
-0.49790102 -0.011875189 -1.5220001
-0.48457 -0.011789362 -1.511
-0.47609451 -0.011820572 -1.5150001
-0.46787533 -0.011859584 -1.5200001
-0.45657796 -0.011820572 -1.5150001
-0.44387037 -0.011742549 -1.5050001
-0.43302256 -0.011711339 -1.501
-0.42391855 -0.011726944 -1.503
-0.41423753 -0.011726944 -1.503
-0.40401825 -0.011711339 -1.501
-0.39119744 -0.011617711 -1.4890001
-0.37827495 -0.01151628 -1.4760001
-0.36826819 -0.011500675 -1.4740001
-0.35828722 -0.011485071 -1.4720001
-0.34809503 -0.011461664 -1.4690001
-0.33817199 -0.01144606 -1.4670001
-0.32827473 -0.011430454 -1.465
-0.31840321 -0.011414849 -1.4630001
-0.30813509 -0.011383641 -1.4590001
-0.29832801 -0.011368035 -1.457
-0.28815004 -0.011336826 -1.4530001
-0.27802366 -0.011305617 -1.4490001
-0.2686905 -0.011305617 -1.4490001
-0.25864133 -0.011274407 -1.4450001
-0.24898885 -0.011258802 -1.4430001
-0.23853159 -0.011204186 -1.4360001
-0.22768548 -0.011126162 -1.4260001
-0.21742786 -0.011071545 -1.419
-0.20770082 -0.011040336 -1.4150001
-0.1981656 -0.01101693 -1.4120001
-0.18907076 -0.01101693 -1.4120001
-0.17997593 -0.01101693 -1.4120001
-0.17063904 -0.011001324 -1.4100001
-0.16132793 -0.01098572 -1.4080001
-0.15204255 -0.010970115 -1.406
-0.14268127 -0.010946709 -1.4030001
-0.13307285 -0.010899894 -1.3970001
-0.12345294 -0.010845277 -1.3900001
-0.11392317 -0.01079066 -1.383
-0.10448359 -0.010736044 -1.376
-0.095134191 -0.010681428 -1.3690001
-0.086001061 -0.010642416 -1.3640001
-0.07704556 -0.010619009 -1.3610001
-0.068178877 -0.010603405 -1.3590001
-0.059425417 -0.010603405 -1.3590001
-0.050597377 -0.0105878 -1.3570001
-0.041702569 -0.010548788 -1.3520001
-0.032969788 -0.010540986 -1.3510001
-0.024178039 -0.010501973 -1.3460001
-0.015485264 -0.010486369 -1.3440001
-0.0068030134 -0.010447358 -1.3390001
0.0018107458 -0.010384939 -1.3310001
0.010305844 -0.010306915 -1.3210001
0.018771818 -0.010283507 -1.3180001
0.027199145 -0.0102601 -1.3150001
0.035533577 -0.010221088 -1.3100001
0.043937858 -0.010213286 -1.309
0.05236927 -0.010213286 -1.309
0.060707781 -0.010197681 -1.307
0.069073424 -0.01018988 -1.3060001
0.077248186 -0.01015867 -1.302
0.085568734 -0.010150868 -1.3010001
0.093804188 -0.010135262 -1.299
0.10193522 -0.010111855 -1.296
0.10994252 -0.010080646 -1.2920001
0.11780676 -0.010041635 -1.2870001
0.12580253 -0.010018228 -1.284
0.1339685 -0.010010425 -1.2830001
0.1420107 -0.0099948198 -1.281
0.14990987 -0.0099714138 -1.2780001
0.15801786 -0.0099636111 -1.2770001
0.16585261 -0.0099402042 -1.274
0.1736487 -0.0099167963 -1.271
0.18154922 -0.009901192 -1.2690001
0.18882595 -0.0098543772 -1.263
0.19633728 -0.0098231686 -1.2590001
0.20428424 -0.009815366 -1.258
0.2120495 -0.0097997617 -1.256
0.21996427 -0.0097919591 -1.2550001
0.22768444 -0.0097763538 -1.253
0.23519067 -0.0097529469 -1.25
0.24304746 -0.0097451452 -1.2490001
0.25048932 -0.0097217374 -1.2460001
0.25830743 -0.0097139347 -1.245
0.26589879 -0.0096983304 -1.243
0.27368474 -0.0096905287 -1.2420001
0.28077739 -0.0096593192 -1.238
0.28758526 -0.009620307 -1.233
0.29408911 -0.0095734932 -1.2270001
0.30125394 -0.0095500862 -1.2240001
0.30913785 -0.0095500862 -1.2240001
0.31650376 -0.009534481 -1.222
0.32384393 -0.0095188767 -1.22
0.33061451 -0.0094876671 -1.2160001
0.33789027 -0.0094720628 -1.2140001
0.34542498 -0.0094642602 -1.2130001
0.35207319 -0.0094330506 -1.2090001
0.35866988 -0.0094018411 -1.205
0.36551917 -0.0093784342 -1.202
0.37201923 -0.0093472246 -1.1980001
0.37815079 -0.0093082134 -1.1930001
0.38421798 -0.0092692012 -1.1880001
0.3902207 -0.00923019 -1.1830001
0.39649534 -0.0091989795 -1.179
0.40271848 -0.0091677709 -1.1750001
0.4095884 -0.0091521656 -1.1730001
0.41607696 -0.0091287587 -1.1700001
0.42325097 -0.0091209561 -1.169
0.4296751 -0.0090975491 -1.166
0.43643555 -0.0090819439 -1.164
0.44355166 -0.0090741422 -1.1630001
0.45026696 -0.009058537 -1.161
0.45735085 -0.0090507353 -1.1600001
0.46482256 -0.0090507353 -1.1600001
0.47147992 -0.009035131 -1.1580001
0.47769794 -0.0090117231 -1.1550001
0.48387733 -0.0089883162 -1.1520001
0.49001804 -0.0089649092 -1.149
0.49655306 -0.0089493049 -1.1470001
0.50262296 -0.0089258971 -1.1440001
0.50910002 -0.0089102928 -1.1420001
0.51555127 -0.0088946884 -1.1400001
0.52197671 -0.0088790832 -1.138
0.52930671 -0.0088790832 -1.138
0.53663665 -0.0088790832 -1.138
0.54301065 -0.008863478 -1.136
0.5493589 -0.0088478737 -1.1340001
0.55469954 -0.0088166641 -1.13
0.5614807 -0.0088088624 -1.1290001
0.56774521 -0.0087932572 -1.1270001
0.57347369 -0.0087698502 -1.1240001
0.5801968 -0.0087620476 -1.123
0.586384 -0.0087464433 -1.1210001
0.59413403 -0.0087542459 -1.1220001
-0.74321181 -0.023216847 -1.6300001
-0.72731858 -0.023045925 -1.618
-0.70670611 -0.022718325 -1.595
-0.67853051 -0.022134343 -1.554
-0.65389448 -0.021650067 -1.5200001
-0.6377477 -0.021436416 -1.5050001
-0.62471533 -0.021322466 -1.4970001
-0.6167165 -0.021379441 -1.501
-0.6155414 -0.021678554 -1.5220001
-0.61489177 -0.022006152 -1.5450001
-0.61198813 -0.022262536 -1.5630001
-0.60346109 -0.022319509 -1.567
-0.59336782 -0.022319509 -1.567
-0.57843572 -0.022134343 -1.554
-0.56513423 -0.022006152 -1.5450001
-0.55122995 -0.021849474 -1.534
-0.5392319 -0.021764014 -1.5280001
-0.52869695 -0.021735527 -1.526
-0.51886779 -0.021735527 -1.526
-0.50703722 -0.021650067 -1.5200001
-0.49364826 -0.021493388 -1.5090001
-0.48136306 -0.021379441 -1.501
-0.47232345 -0.021407926 -1.503
-0.46387374 -0.021464901 -1.5070001
-0.45356426 -0.021436416 -1.5050001
-0.44092107 -0.021293981 -1.4950001
-0.42956069 -0.021208519 -1.4890001
-0.41996989 -0.021208519 -1.4890001
-0.41037905 -0.021208519 -1.4890001
-0.39998078 -0.021165788 -1.4860001
-0.38830748 -0.021051841 -1.478
-0.37776238 -0.020994868 -1.4740001
-0.36751866 -0.020952137 -1.4710001
-0.35707021 -0.020895163 -1.4670001
-0.34714717 -0.020866675 -1.465
-0.33678886 -0.020809703 -1.4610001
-0.32648209 -0.020752728 -1.457
-0.31622684 -0.020695753 -1.4530001
-0.30644554 -0.020667268 -1.4510001
-0.29546145 -0.020553319 -1.4430001
-0.28616691 -0.020553319 -1.4430001
-0.2768724 -0.020553319 -1.4430001
-0.2670216 -0.02051059 -1.4400001
-0.25667244 -0.020425128 -1.434
-0.24674571 -0.020368155 -1.4300001
-0.23687051 -0.020311181 -1.4260001
-0.22688715 -0.020239964 -1.4210001
-0.21681498 -0.020154502 -1.4150001
-0.20726046 -0.020111771 -1.4120001
-0.19788492 -0.020083286 -1.4100001
-0.18853517 -0.020054799 -1.4080001
-0.17946608 -0.020054799 -1.4080001
-0.17015494 -0.020026311 -1.406
-0.16109876 -0.020026311 -1.406
-0.15171815 -0.019983582 -1.4030001
-0.14207108 -0.01989812 -1.3970001
-0.13221554 -0.019769927 -1.388
-0.12256479 -0.019655982 -1.3800001
-0.11309943 -0.019556277 -1.373
-0.10410392 -0.019527789 -1.3710001
-0.094925717 -0.019456573 -1.3660001
-0.08587496 -0.0193996 -1.3620001
-0.076932341 -0.019356869 -1.3590001
-0.068028376 -0.019314138 -1.3560001
-0.05920678 -0.019285651 -1.3540001
-0.050373659 -0.01924292 -1.3510001
-0.041548345 -0.019185947 -1.3470001
-0.032798961 -0.019143216 -1.3440001
-0.024088224 -0.019100487 -1.3410001
-0.01539309 -0.019029269 -1.3360001
-0.0067522069 -0.018929565 -1.3290001
0.001795781 -0.018801372 -1.3200001
0.01023563 -0.018687425 -1.312
0.018643634 -0.018644694 -1.309
0.027075041 -0.018644694 -1.309
0.035425078 -0.018601965 -1.3060001
0.043702897 -0.018544991 -1.302
0.052049216 -0.018530749 -1.3010001
0.060289752 -0.018488018 -1.2980001
0.068544529 -0.018459529 -1.296
0.076832876 -0.018445287 -1.2950001
0.085042566 -0.0184168 -1.2930001
0.093298703 -0.018402556 -1.2920001
0.10122734 -0.01833134 -1.2870001
0.10917667 -0.018274365 -1.2830001
0.11716601 -0.018231636 -1.2800001
0.12521467 -0.018203149 -1.2780001
0.13334198 -0.018188905 -1.2770001
0.14134556 -0.018160418 -1.2750001
0.14944066 -0.018146174 -1.274
0.15702793 -0.018074956 -1.2690001
0.16468097 -0.018017983 -1.2650001
0.1724191 -0.017975252 -1.2620001
0.18011858 -0.017932521 -1.2590001
0.18762992 -0.017875548 -1.2550001
0.19524565 -0.017832818 -1.2520001
0.20282274 -0.017790088 -1.2490001
0.2108677 -0.017790088 -1.2490001
0.21856211 -0.017761601 -1.2470001
0.22641246 -0.017747357 -1.2460001
0.2342499 -0.017733112 -1.245
0.24168532 -0.017690383 -1.2420001
0.24908207 -0.017647654 -1.2390001
0.25685513 -0.017633408 -1.238
0.26440138 -0.017604923 -1.2360001
0.27148119 -0.01754795 -1.2320001
0.2787362 -0.017505219 -1.2290001
0.28571934 -0.017448245 -1.225
0.292651 -0.01739127 -1.2210001
0.30026945 -0.017377026 -1.22
0.30838016 -0.01739127 -1.2210001
0.31598577 -0.017377026 -1.22
0.32225126 -0.017291566 -1.2140001
0.32898319 -0.017234592 -1.21
0.33649862 -0.01722035 -1.2090001
0.34343162 -0.017177619 -1.2060001
0.35003471 -0.017120644 -1.202
0.3574793 -0.017106401 -1.2010001
0.36491096 -0.017092157 -1.2
0.37201923 -0.017063672 -1.1980001
0.3794187 -0.017049426 -1.197
0.38551164 -0.01697821 -1.192
0.39088041 -0.016878506 -1.1850001
0.39683166 -0.016807288 -1.1800001
0.40271848 -0.016736072 -1.1750001
0.40889001 -0.016679097 -1.171
0.41536573 -0.016636368 -1.1680001
0.42180276 -0.016593637 -1.1650001
0.42856961 -0.01656515 -1.1630001
0.43493581 -0.016522419 -1.1600001
0.44164473 -0.016493933 -1.1580001
0.44871566 -0.01647969 -1.1570001
0.45537952 -0.016451202 -1.1550001
0.46201754 -0.016422713 -1.153
0.46822271 -0.016379984 -1.1500001
0.47480276 -0.016351497 -1.148
0.48135713 -0.01632301 -1.146
0.48745918 -0.016280279 -1.143
0.49395555 -0.016251793 -1.141
0.50086552 -0.016237551 -1.1400001
0.50687104 -0.01619482 -1.1370001
0.51374227 -0.016180575 -1.136
0.52060074 -0.016166333 -1.1350001
0.52744627 -0.016152089 -1.1340001
0.53427887 -0.016137846 -1.133
0.53966469 -0.016080871 -1.1290001
0.54596782 -0.016052386 -1.1270001
0.55273604 -0.01603814 -1.126
0.55899405 -0.016009655 -1.1240001
0.56573009 -0.015995411 -1.123
0.57194304 -0.015966924 -1.1210001
0.57813019 -0.015938437 -1.1190001
0.58481473 -0.015924193 -1.118
0.59201586 -0.015924193 -1.118
-0.74229985 -0.033674482 -1.628
-0.72641957 -0.03342627 -1.6160001
-0.70670611 -0.032991894 -1.595
-0.68246025 -0.032329988 -1.5630001
-0.65819645 -0.031647395 -1.5300001
-0.63859522 -0.031171652 -1.5070001
-0.62388074 -0.030923437 -1.4950001
-0.61342955 -0.030882066 -1.493
-0.60704839 -0.031047544 -1.501
-0.60573804 -0.031481922 -1.5220001
-0.60415721 -0.031916298 -1.5430001
-0.59691429 -0.032061089 -1.5500001
-0.58579457 -0.031999033 -1.5470001
-0.57359684 -0.031874929 -1.5410001
-0.55891591 -0.03160603 -1.5280001
-0.54691786 -0.031481922 -1.5220001
-0.53782028 -0.031523287 -1.524
-0.52800405 -0.031523287 -1.524
-0.5168277 -0.031440552 -1.5200001
-0.50470221 -0.031295761 -1.5130001
-0.49168542 -0.031088913 -1.503
-0.48008028 -0.030964807 -1.4970001
-0.46918091 -0.030882066 -1.493
-0.46018001 -0.030923437 -1.4950001
-0.44994777 -0.030882066 -1.493
-0.43767682 -0.030695906 -1.4840001
-0.42638731 -0.030571798 -1.478
-0.41686735 -0.030571798 -1.478
-0.40679616 -0.03053043 -1.4760001
-0.39621246 -0.030447692 -1.4720001
-0.38541752 -0.03034427 -1.4670001
-0.37443069 -0.030220162 -1.4610001
-0.36452055 -0.030178793 -1.4590001
-0.35414937 -0.030096052 -1.455
-0.34477755 -0.030096052 -1.455
-0.3349447 -0.030054685 -1.4530001
-0.32513765 -0.030013315 -1.4510001
-0.31492102 -0.029930577 -1.447
-0.30433357 -0.02980647 -1.4410001
-0.29361865 -0.029661676 -1.434
-0.28517535 -0.029744416 -1.4380001
-0.27591306 -0.029744416 -1.4380001
-0.2651673 -0.029578939 -1.4300001
-0.25470355 -0.029434148 -1.4230001
-0.24484766 -0.029351408 -1.419
-0.23570774 -0.029351408 -1.419
-0.22656779 -0.029351408 -1.419
-0.21666174 -0.029247986 -1.414
-0.20696689 -0.029165247 -1.4100001
-0.19732353 -0.029082509 -1.406
-0.18786564 -0.029020457 -1.4030001
-0.17857385 -0.028979085 -1.401
-0.16906577 -0.028896349 -1.3970001
-0.15983839 -0.028854979 -1.3950001
-0.15031235 -0.028751558 -1.3900001
-0.14064732 -0.028606763 -1.383
-0.13088197 -0.028420603 -1.3740001
-0.121499 -0.028296495 -1.368
-0.11235807 -0.028213758 -1.3640001
-0.10342053 -0.028172389 -1.3620001
-0.09464775 -0.028172389 -1.3620001
-0.085559711 -0.028068967 -1.3570001
-0.076649293 -0.028006913 -1.3540001
-0.067777529 -0.027944857 -1.3510001
-0.059075598 -0.027944857 -1.3510001
-0.050224517 -0.02786212 -1.3470001
-0.041455809 -0.027800066 -1.3440001
-0.032676943 -0.027696645 -1.3390001
-0.023962485 -0.027593222 -1.3340001
-0.015277873 -0.027427744 -1.3260001
-0.0066963192 -0.027262267 -1.3180001
0.0017862578 -0.027158845 -1.3130001
0.010196622 -0.027034737 -1.307
0.018600907 -0.027014052 -1.3060001
0.026930256 -0.026931314 -1.302
0.035235204 -0.02686926 -1.299
0.043568633 -0.026848577 -1.2980001
0.051809173 -0.026786523 -1.2950001
0.06005751 -0.026745154 -1.2930001
0.068227194 -0.0266831 -1.2900001
0.076358229 -0.026621046 -1.2870001
0.084450617 -0.026558992 -1.284
0.09250436 -0.026496937 -1.281
0.10044081 -0.026414201 -1.2770001
0.10824062 -0.026310777 -1.2720001
0.11643372 -0.026310777 -1.2720001
0.12452883 -0.026290091 -1.271
0.13271548 -0.026290091 -1.271
0.1406804 -0.026248723 -1.2690001
0.14850226 -0.026186669 -1.266
0.15628548 -0.026124615 -1.263
0.16389987 -0.026041877 -1.2590001
0.17146273 -0.02595914 -1.2550001
0.17911711 -0.025897086 -1.2520001
0.18643387 -0.025793664 -1.2470001
0.19415401 -0.025752293 -1.245
0.20136125 -0.02564887 -1.24
0.20934823 -0.02564887 -1.24
0.21733519 -0.02564887 -1.24
0.22514048 -0.025628187 -1.2390001
0.23293285 -0.0256075 -1.238
0.24032314 -0.025545446 -1.235
0.24787585 -0.025504079 -1.233
0.2554028 -0.025462709 -1.2310001
0.26290396 -0.02542134 -1.2290001
0.27037939 -0.025379973 -1.2270001
0.2771486 -0.025276547 -1.222
0.28408667 -0.02519381 -1.2180001
0.29097325 -0.025111072 -1.2140001
0.29854661 -0.025090387 -1.2130001
0.30635965 -0.025090387 -1.2130001
0.31417274 -0.025090387 -1.2130001
0.32118946 -0.025028333 -1.21
0.32735187 -0.024904227 -1.2040001
0.334272 -0.024842173 -1.2010001
0.34086868 -0.024759432 -1.197
0.34741384 -0.024676695 -1.1930001
0.35480043 -0.024656011 -1.192
0.36247823 -0.024656011 -1.192
0.37046656 -0.024676695 -1.1930001
0.37815079 -0.024676695 -1.1930001
0.38551164 -0.024656011 -1.192
0.39055055 -0.024490533 -1.184
0.39548644 -0.024325056 -1.176
0.40100479 -0.02420095 -1.1700001
0.40679497 -0.024097528 -1.1650001
0.41287634 -0.024014788 -1.161
0.41963038 -0.02397342 -1.159
0.42635858 -0.023932051 -1.1570001
0.43268612 -0.023869997 -1.154
0.43935642 -0.023828628 -1.1520001
0.4460009 -0.02378726 -1.1500001
0.4530139 -0.023766574 -1.149
0.45961332 -0.023725206 -1.1470001
0.46577978 -0.023663152 -1.1440001
0.47232127 -0.023621783 -1.1420001
0.47925696 -0.023601098 -1.141
0.48532683 -0.023539044 -1.138
0.49222392 -0.023518359 -1.1370001
0.49866876 -0.023476992 -1.1350001
0.50553364 -0.023456305 -1.1340001
0.51238555 -0.023435621 -1.133
0.51968336 -0.023435621 -1.133
0.52605087 -0.023394251 -1.131
0.53192109 -0.023332197 -1.128
0.53727466 -0.02324946 -1.1240001
0.5435456 -0.023208091 -1.1220001
0.55077249 -0.023208091 -1.1220001
0.55750209 -0.023187406 -1.1210001
0.56421882 -0.02316672 -1.12
0.57092267 -0.023146037 -1.1190001
0.57606357 -0.023063298 -1.115
0.58272237 -0.023042616 -1.1140001
0.58989775 -0.023042616 -1.1140001
-0.74002004 -0.044024974 -1.623
-0.72327298 -0.043645218 -1.6090001
-0.70670611 -0.043265454 -1.595
-0.68420678 -0.042505939 -1.567
-0.65905678 -0.041556541 -1.5320001
-0.63859522 -0.040878396 -1.5070001
-0.62471533 -0.040607139 -1.4970001
-0.61425132 -0.040552892 -1.4950001
-0.60947496 -0.040878396 -1.5070001
-0.60573804 -0.041285284 -1.5220001
-0.59906709 -0.041502289 -1.5300001
-0.59267807 -0.041746419 -1.539
-0.58200788 -0.041692168 -1.5370001
-0.56801343 -0.041393783 -1.526
-0.5548923 -0.041149653 -1.5170001
-0.54440248 -0.041095402 -1.5150001
-0.53640866 -0.041231032 -1.5200001
-0.52800405 -0.041339532 -1.524
-0.5168277 -0.041231032 -1.5200001
-0.50270069 -0.040878396 -1.5070001
-0.49103117 -0.040715642 -1.501
-0.4787975 -0.040498637 -1.493
-0.46792391 -0.040390134 -1.4890001
-0.45740968 -0.040308759 -1.4860001
-0.44663271 -0.040200256 -1.4820001
-0.43590724 -0.040091753 -1.478
-0.42523336 -0.03998325 -1.4740001
-0.41573915 -0.03998325 -1.4740001
-0.40541813 -0.039901871 -1.4710001
-0.39432827 -0.039739117 -1.465
-0.38279024 -0.039522111 -1.457
-0.3708427 -0.039250854 -1.447
-0.35977352 -0.039060976 -1.4400001
-0.35074174 -0.039088104 -1.4410001
-0.34240797 -0.039196603 -1.4450001
-0.33310056 -0.039196603 -1.4450001
-0.32334501 -0.039142355 -1.4430001
-0.31339756 -0.039060976 -1.4400001
-0.30243281 -0.038843971 -1.432
-0.29198062 -0.03868122 -1.4260001
-0.28279558 -0.03868122 -1.4260001
-0.27361059 -0.03868122 -1.4260001
-0.26386926 -0.038599841 -1.4230001
-0.2536296 -0.038437087 -1.4170001
-0.24450257 -0.038437087 -1.4170001
-0.23570774 -0.038491335 -1.419
-0.22624846 -0.038437087 -1.4170001
-0.21666174 -0.038355708 -1.414
-0.20667332 -0.038192958 -1.4080001
-0.19690251 -0.038057327 -1.4030001
-0.18706222 -0.037894573 -1.3970001
-0.17717178 -0.037704695 -1.3900001
-0.16761352 -0.037569065 -1.3850001
-0.15811969 -0.037433438 -1.3800001
-0.14858213 -0.037270684 -1.3740001
-0.13912186 -0.037107926 -1.368
-0.12964363 -0.036918048 -1.3610001
-0.12043322 -0.036782421 -1.3560001
-0.11169907 -0.036782421 -1.3560001
-0.10281307 -0.03672817 -1.3540001
-0.093883343 -0.036646791 -1.3510001
-0.084929205 -0.036538292 -1.3470001
-0.076083198 -0.036456913 -1.3440001
-0.067576863 -0.036538292 -1.3470001
-0.058900692 -0.036538292 -1.3470001
-0.050112657 -0.036456913 -1.3440001
-0.041301582 -0.036321286 -1.3390001
-0.032530516 -0.036158528 -1.3330001
-0.023800818 -0.035941523 -1.325
-0.015174176 -0.035724517 -1.317
-0.0066658352 -0.03558889 -1.312
0.001780816 -0.035507511 -1.309
0.010196622 -0.03545326 -1.307
0.018543936 -0.035317633 -1.302
0.026868204 -0.035236254 -1.299
0.035153829 -0.035154879 -1.296
0.043400805 -0.035073504 -1.2930001
0.051609136 -0.034992125 -1.2900001
0.059778817 -0.03491075 -1.2870001
0.067909859 -0.034829371 -1.284
0.07600224 -0.034747992 -1.281
0.083990216 -0.034639493 -1.2770001
0.091854453 -0.034503862 -1.2720001
0.099732921 -0.034395359 -1.268
0.10764496 -0.034313984 -1.2650001
0.11560988 -0.034259729 -1.263
0.12394097 -0.034313984 -1.2650001
0.13188012 -0.034259729 -1.263
0.14001524 -0.034259729 -1.263
0.14815035 -0.034259729 -1.263
0.15579052 -0.03415123 -1.2590001
0.16337915 -0.034042727 -1.2550001
0.17105286 -0.033961352 -1.2520001
0.1784018 -0.033825722 -1.2470001
0.18613485 -0.033771466 -1.245
0.19337428 -0.03363584 -1.24
0.2007117 -0.033527337 -1.2360001
0.20816644 -0.033445962 -1.233
0.21610831 -0.033445962 -1.233
0.22368678 -0.03339171 -1.2310001
0.23105133 -0.033310331 -1.228
0.238961 -0.033310331 -1.228
0.24666966 -0.033283208 -1.2270001
0.25415793 -0.033228956 -1.225
0.26183438 -0.033201832 -1.2240001
0.26905721 -0.033120453 -1.2210001
0.2760146 -0.033011951 -1.217
0.28315371 -0.032930575 -1.2140001
0.29001451 -0.032822069 -1.21
0.29731598 -0.032767821 -1.2080001
0.30459172 -0.03271357 -1.2060001
0.3118417 -0.032659318 -1.2040001
0.318535 -0.032550815 -1.2
0.32544863 -0.032469437 -1.197
0.33204538 -0.032360934 -1.1930001
0.33830577 -0.032225307 -1.1880001
0.34450173 -0.032089677 -1.1830001
0.35122862 -0.032008301 -1.1800001
0.35913324 -0.032035429 -1.1810001
0.36736122 -0.032089677 -1.1830001
0.37498108 -0.032089677 -1.1830001
0.38163066 -0.032008301 -1.1800001
0.38758186 -0.031872671 -1.1750001
0.39313236 -0.031709917 -1.169
0.39860561 -0.031547166 -1.1630001
0.40469986 -0.03143866 -1.159
0.41145387 -0.031384408 -1.1570001
0.41745797 -0.031275906 -1.153
0.42377907 -0.03119453 -1.1500001
0.43043643 -0.031140277 -1.148
0.43706807 -0.031086028 -1.146
0.44367391 -0.031031776 -1.1440001
0.45025402 -0.030977525 -1.1420001
0.45680839 -0.030923275 -1.1400001
0.46292976 -0.030841896 -1.1370001
0.46983969 -0.030814771 -1.136
0.47673681 -0.030787647 -1.1350001
0.48404744 -0.030787647 -1.1350001
0.49049222 -0.030733394 -1.133
0.49691132 -0.030679142 -1.131
0.50375038 -0.030652015 -1.13
0.51102883 -0.030652015 -1.13
0.51876599 -0.030679142 -1.131
0.52512068 -0.030624891 -1.1290001
0.53097796 -0.030543514 -1.126
0.53679663 -0.030462136 -1.123
0.54306114 -0.030407885 -1.1210001
0.54979068 -0.030380759 -1.12
0.55601013 -0.030326508 -1.118
0.56119621 -0.030218007 -1.1140001
0.56735122 -0.030163756 -1.1120001
0.57348037 -0.030109502 -1.11
0.57958382 -0.030055251 -1.108
0.58777964 -0.030109502 -1.11
-0.73272479 -0.053941827 -1.6070001
-0.72012633 -0.053773992 -1.6020001
-0.70581996 -0.053471889 -1.5930001
-0.68420678 -0.052599151 -1.567
-0.65905678 -0.051424317 -1.5320001
-0.6402902 -0.050719414 -1.511
-0.6272192 -0.050450876 -1.503
-0.61918175 -0.050585147 -1.5070001
-0.6155414 -0.05108865 -1.5220001
-0.60971791 -0.051424317 -1.5320001
-0.60180789 -0.051592149 -1.5370001
-0.59190792 -0.051592149 -1.5370001
-0.5801146 -0.051424317 -1.5320001
-0.56652457 -0.05108865 -1.5220001
-0.55416077 -0.050853681 -1.5150001
-0.54368377 -0.050786547 -1.5130001
-0.53534997 -0.050920814 -1.5170001
-0.52661824 -0.051021516 -1.5200001
-0.5168277 -0.051021516 -1.5200001
-0.50203359 -0.050518014 -1.5050001
-0.48906839 -0.050182346 -1.4950001
-0.47655264 -0.049880244 -1.4860001
-0.46635264 -0.04981311 -1.4840001
-0.4555628 -0.04967884 -1.48
-0.44542721 -0.04961171 -1.478
-0.43472752 -0.049477443 -1.4740001
-0.4237909 -0.049309608 -1.4690001
-0.41376483 -0.049242478 -1.4670001
-0.40376446 -0.049175341 -1.465
-0.39271331 -0.04897394 -1.4590001
-0.38068846 -0.048638273 -1.4490001
-0.36853614 -0.048269037 -1.4380001
-0.3572751 -0.048000503 -1.4300001
-0.34855112 -0.048067637 -1.432
-0.33980137 -0.04813477 -1.434
-0.33056483 -0.04813477 -1.434
-0.32132828 -0.04813477 -1.434
-0.31122118 -0.048000503 -1.4300001
-0.30095443 -0.047832672 -1.4250001
-0.29095685 -0.047698405 -1.4210001
-0.28140739 -0.047631267 -1.419
-0.27226746 -0.047631267 -1.419
-0.26275668 -0.047564134 -1.4170001
-0.2536296 -0.047564134 -1.4170001
-0.24450257 -0.047564134 -1.4170001
-0.23537552 -0.047564134 -1.4170001
-0.22592914 -0.047497001 -1.4150001
-0.21635529 -0.047396302 -1.4120001
-0.20608617 -0.047127765 -1.404
-0.19606045 -0.046892799 -1.3970001
-0.18612491 -0.046657834 -1.3900001
-0.17602462 -0.046355732 -1.381
-0.1662823 -0.046120763 -1.3740001
-0.15674473 -0.045919362 -1.368
-0.14728448 -0.045717962 -1.3620001
-0.1379015 -0.045516562 -1.3560001
-0.12878634 -0.045382295 -1.3520001
-0.11998915 -0.045348726 -1.3510001
-0.11128721 -0.045348726 -1.3510001
-0.10243341 -0.045281596 -1.3490001
-0.093535885 -0.045180894 -1.3460001
-0.084613942 -0.045046624 -1.342
-0.07591337 -0.045013059 -1.3410001
-0.067175508 -0.044945929 -1.3390001
-0.058463413 -0.044878792 -1.337
-0.049739793 -0.044778094 -1.3340001
-0.040962286 -0.044576693 -1.3280001
-0.032213263 -0.044308156 -1.3200001
-0.023621188 -0.044140324 -1.3150001
-0.015093524 -0.043972488 -1.3100001
-0.0066505931 -0.04393892 -1.309
0.0017767348 -0.043838225 -1.3060001
0.010173217 -0.043771088 -1.304
0.018543936 -0.043703955 -1.302
0.026868204 -0.043603253 -1.299
0.035072457 -0.043401856 -1.2930001
0.043266539 -0.043267585 -1.289
0.051329087 -0.043066189 -1.2830001
0.059453681 -0.042965487 -1.2800001
0.067592524 -0.042898353 -1.2780001
0.07558693 -0.042764086 -1.274
0.083595581 -0.042663384 -1.271
0.091421172 -0.042495549 -1.266
0.099261008 -0.042361286 -1.2620001
0.10721949 -0.042294152 -1.2600001
0.11524375 -0.042260583 -1.2590001
0.12325512 -0.042227015 -1.258
0.13135804 -0.042227015 -1.258
0.13946094 -0.042227015 -1.258
0.14756386 -0.042227015 -1.258
0.15541929 -0.042159881 -1.256
0.16337915 -0.042126317 -1.2550001
0.1707796 -0.041958481 -1.25
0.17825873 -0.041824214 -1.2460001
0.18538731 -0.041622814 -1.24
0.1927505 -0.041488547 -1.2360001
0.20006216 -0.04135428 -1.2320001
0.20749113 -0.041253582 -1.2290001
0.2150567 -0.041186448 -1.2270001
0.22241482 -0.041085746 -1.2240001
0.22973426 -0.040985044 -1.2210001
0.23759885 -0.040985044 -1.2210001
0.2452624 -0.040951479 -1.22
0.2527056 -0.040884346 -1.2180001
0.26033694 -0.040850777 -1.217
0.26795542 -0.040817212 -1.2160001
0.27510741 -0.04071651 -1.2130001
0.28222075 -0.040615808 -1.21
0.28953514 -0.040548678 -1.2080001
0.2965776 -0.040447976 -1.205
0.30358145 -0.040347274 -1.202
0.31002864 -0.040179443 -1.197
0.31588054 -0.039944474 -1.1900001
0.32272977 -0.039843775 -1.187
0.32926208 -0.039709508 -1.1830001
0.33602762 -0.039608806 -1.1800001
0.34246323 -0.039474539 -1.176
0.34944269 -0.039407406 -1.174
0.35670048 -0.039373841 -1.1730001
0.36425588 -0.039373841 -1.1730001
0.37181133 -0.039373841 -1.1730001
0.37936676 -0.039373841 -1.1730001
0.38560268 -0.03923957 -1.169
0.39145088 -0.039071739 -1.164
0.39723465 -0.038903903 -1.159
0.40295395 -0.038736071 -1.154
0.40825325 -0.038534667 -1.148
0.41419944 -0.038400404 -1.1440001
0.42119953 -0.038366836 -1.143
0.4281868 -0.038333271 -1.1420001
0.43477979 -0.038266137 -1.1400001
0.44095913 -0.038165435 -1.1370001
0.44749415 -0.038098305 -1.1350001
0.45400336 -0.038031168 -1.133
0.46048683 -0.037964035 -1.131
0.46735814 -0.037930466 -1.13
0.47463658 -0.037930466 -1.13
0.48191503 -0.037930466 -1.13
0.48876059 -0.037896901 -1.1290001
0.4951539 -0.037829768 -1.1270001
0.50241303 -0.037829768 -1.1270001
0.51012439 -0.037863333 -1.128
0.51784867 -0.037896901 -1.1290001
0.52465552 -0.037863333 -1.128
0.52956325 -0.037695501 -1.123
0.53584063 -0.037628368 -1.1210001
0.54209226 -0.037561234 -1.1190001
0.54782718 -0.037460532 -1.1160001
0.55352348 -0.037359834 -1.113
0.55766982 -0.03715843 -1.107
0.56275934 -0.037024163 -1.103
0.5698638 -0.037024163 -1.103
0.57696837 -0.037024163 -1.103
0.58407289 -0.037024163 -1.103
-0.7272532 -0.063812591 -1.595
-0.71608067 -0.063732579 -1.5930001
-0.70271844 -0.063452519 -1.5860001
-0.68333352 -0.062612355 -1.5650001
-0.66292858 -0.061652169 -1.5410001
-0.64579898 -0.060972031 -1.524
-0.63139236 -0.060531948 -1.5130001
-0.62534481 -0.060892016 -1.5220001
-0.61796802 -0.061132066 -1.5280001
-0.60971791 -0.061292093 -1.5320001
