# .PCD v0.7 - Point Cloud Data file format
VERSION 0.7
FIELDS x y z
SIZE 4 4 4
TYPE F F F
COUNT 1 1 1
WIDTH 1328
HEIGHT 1
VIEWPOINT 0 0 0 1 0 0 0
POINTS 1328
DATA ascii
-3.2868304 -1.690621 -6.8690004
-3.1881881 -1.6509951 -6.7080002
-3.1061609 -1.6194915 -6.5800004
-3.0484002 -1.6002938 -6.5020003
-2.9678607 -1.56879 -6.3740001
-2.9112659 -1.5495924 -6.2960005
-0.13042866 -0.096234217 -0.39100003
-0.12949978 -0.09648034 -0.39200002
-0.12856445 -0.096726455 -0.39300001
-0.12729877 -0.096726455 -0.39300001
-0.1263538 -0.096972585 -0.39400002
-0.12540236 -0.097218707 -0.39500001
-0.12413025 -0.097218707 -0.39500001
-0.1234329 -0.09869545 -0.40100002
-0.12244604 -0.098941572 -0.40200001
-0.12145276 -0.099187694 -0.40300003
-0.12045301 -0.099433817 -0.40400001
-0.11944684 -0.099679947 -0.40500003
-0.11843424 -0.099926062 -0.40600002
-0.11741517 -0.10017218 -0.40700001
-0.11667494 -0.10066443 -0.40900001
-0.11563979 -0.10091056 -0.41000003
-0.11459818 -0.10115668 -0.41100001
-0.11355015 -0.1014028 -0.41200003
-0.11276805 -0.10189506 -0.41400003
-0.11170392 -0.10214117 -0.41500002
-0.11089928 -0.10263342 -0.41700003
-0.10981902 -0.10287954 -0.41800001
-0.10899185 -0.10337179 -0.42000002
-0.10815178 -0.10386404 -0.42200002
-0.10704576 -0.10411016 -0.42300001
-0.10618316 -0.1046024 -0.42500001
-0.10530768 -0.10509465 -0.42700002
-0.1044193 -0.1055869 -0.42900002
-0.10327785 -0.10583302 -0.43000001
-0.10236695 -0.10632527 -0.43200001
-0.10120941 -0.1065714 -0.43300003
-0.10004542 -0.10681751 -0.43400002
-0.099102303 -0.10730977 -0.43600002
-0.097922221 -0.10755588 -0.43700001
-0.096956551 -0.10804813 -0.43900001
-0.095760368 -0.10829426 -0.44000003
-0.09477216 -0.10878651 -0.44200003
-0.09377107 -0.10927875 -0.44400004
-0.092757083 -0.10977099 -0.44600001
-0.09173023 -0.11026324 -0.44800001
-0.090690494 -0.11075549 -0.45000002
-0.089637868 -0.11124773 -0.45200002
-0.088572375 -0.11173999 -0.45400003
-0.087493986 -0.11223223 -0.45600003
-0.086402714 -0.11272448 -0.45800003
-0.085113138 -0.1129706 -0.45900002
-0.083999321 -0.11346285 -0.46100003
-0.082693636 -0.11370897 -0.46200001
-0.081381515 -0.1139551 -0.46300003
-0.0798904 -0.1139551 -0.46300003
-0.078229949 -0.11370897 -0.46200001
-0.07657595 -0.11346285 -0.46100003
-0.074928381 -0.11321672 -0.46000001
-0.073287256 -0.1129706 -0.45900002
-0.071496136 -0.11247835 -0.45700002
-0.069871113 -0.11223223 -0.45600003
-0.068102531 -0.11173999 -0.45400003
-0.066493616 -0.11149386 -0.45300001
-0.064891137 -0.11124773 -0.45200002
-0.063295104 -0.11100162 -0.45100003
-0.061705515 -0.11075549 -0.45000002
-0.060122363 -0.11050937 -0.44900003
-0.058676332 -0.11050937 -0.44900003
-0.057102844 -0.11026324 -0.44800001
-0.055660035 -0.11026324 -0.44800001
-0.054096203 -0.11001712 -0.44700003
-0.052656617 -0.11001712 -0.44700003
-0.051102452 -0.10977099 -0.44600001
-0.049666081 -0.10977099 -0.44600001
-0.048121579 -0.10952488 -0.44500002
-0.046688434 -0.10952488 -0.44500002
-0.045153588 -0.10927875 -0.44400004
-0.043723665 -0.10927875 -0.44400004
-0.042198479 -0.10903262 -0.44300002
-0.040771775 -0.10903262 -0.44300002
-0.039345071 -0.10903262 -0.44300002
-0.03783277 -0.10878651 -0.44200003
-0.036409289 -0.10878651 -0.44200003
-0.034906648 -0.10854038 -0.44100001
-0.033486381 -0.10854038 -0.44100001
-0.032066118 -0.10854038 -0.44100001
-0.030576367 -0.10829426 -0.44000003
-0.029159321 -0.10829426 -0.44000003
-0.027679225 -0.10804813 -0.43900001
-0.026265403 -0.10804813 -0.43900001
-0.02479497 -0.10780201 -0.43800002
-0.02338437 -0.10780201 -0.43800002
-0.021923598 -0.10755588 -0.43700001
-0.020516215 -0.10755588 -0.43700001
-0.019065108 -0.10730977 -0.43600002
-0.017660946 -0.10730977 -0.43600002
-0.016219499 -0.10706364 -0.43500003
-0.014818557 -0.10706364 -0.43500003
-0.013386771 -0.10681751 -0.43400002
-0.011989051 -0.10681751 -0.43400002
-0.010566927 -0.1065714 -0.43300003
-0.0091724275 -0.1065714 -0.43300003
-0.0077599646 -0.10632527 -0.43200001
-0.0063686855 -0.10632527 -0.43200001
-0.0049774065 -0.10632527 -0.43200001
-0.0035778261 -0.10607915 -0.43100002
-0.0021897675 -0.10607915 -0.43100002
-0.0008017089 -0.10607915 -0.43100002
0.0005849892 -0.10583302 -0.43000001
0.0019698271 -0.10583302 -0.43000001
0.0033546651 -0.10583302 -0.43000001
0.0047284812 -0.1055869 -0.42900002
0.0060958564 -0.10534078 -0.42800003
0.0074742534 -0.10534078 -0.42800003
0.0088319657 -0.10509465 -0.42700002
0.010183238 -0.10484853 -0.42600003
0.011555194 -0.10484853 -0.42600003
0.012896803 -0.1046024 -0.42500001
0.014265538 -0.1046024 -0.42500001
0.015597488 -0.10435628 -0.42400002
0.016963003 -0.10435628 -0.42400002
0.018285289 -0.10411016 -0.42300001
0.019647583 -0.10411016 -0.42300001
0.02096021 -0.10386404 -0.42200002
0.022319283 -0.10386404 -0.42200002
0.023678357 -0.10386404 -0.42200002
0.024978101 -0.10361791 -0.42100003
0.026333954 -0.10361791 -0.42100003
0.027624033 -0.10337179 -0.42000002
0.028976668 -0.10337179 -0.42000002
0.030257087 -0.10312567 -0.41900003
0.031606499 -0.10312567 -0.41900003
0.032877259 -0.10287954 -0.41800001
0.034223448 -0.10287954 -0.41800001
0.035484545 -0.10263342 -0.41700003
0.0367392 -0.10238729 -0.41600001
0.038078949 -0.10238729 -0.41600001
0.039323945 -0.10214117 -0.41500002
0.040660474 -0.10214117 -0.41500002
0.041895807 -0.10189506 -0.41400003
0.043229118 -0.10189506 -0.41400003
0.044562425 -0.10189506 -0.41400003
0.045784872 -0.10164893 -0.41300002
0.047114965 -0.10164893 -0.41300002
0.04844505 -0.10164893 -0.41300002
0.049654618 -0.1014028 -0.41200003
0.050981488 -0.1014028 -0.41200003
0.052308358 -0.1014028 -0.41200003
0.053635225 -0.1014028 -0.41200003
0.054962091 -0.1014028 -0.41200003
0.056152336 -0.10115668 -0.41100001
0.057475984 -0.10115668 -0.41100001
0.058656566 -0.10091056 -0.41000003
0.059976995 -0.10091056 -0.41000003
0.061147913 -0.10066443 -0.40900001
0.062465116 -0.10066443 -0.40900001
0.063626379 -0.10041831 -0.40800002
0.064940371 -0.10041831 -0.40800002
0.066091955 -0.10017218 -0.40700001
0.067402728 -0.10017218 -0.40700001
0.068713494 -0.10017218 -0.40700001
0.069852203 -0.099926062 -0.40600002
0.07115975 -0.099926062 -0.40600002
0.072467297 -0.099926062 -0.40600002
0.07359314 -0.099679947 -0.40500003
0.074897461 -0.099679947 -0.40500003
0.076013625 -0.099433817 -0.40400001
0.077314734 -0.099433817 -0.40400001
0.078421243 -0.099187694 -0.40300003
0.079719126 -0.099187694 -0.40300003
0.080815971 -0.098941572 -0.40200001
0.082110628 -0.098941572 -0.40200001
0.083197825 -0.09869545 -0.40100002
0.084489264 -0.09869545 -0.40100002
0.085566781 -0.09844932 -0.40000001
0.086855009 -0.09844932 -0.40000001
0.088143229 -0.09844932 -0.40000001
0.089207873 -0.098203205 -0.39900002
0.090492874 -0.098203205 -0.39900002
0.091777876 -0.098203205 -0.39900002
0.092829637 -0.097957082 -0.39800003
0.09411142 -0.097957082 -0.39800003
0.095393203 -0.097957082 -0.39800003
0.096432075 -0.097710952 -0.39700001
0.097710632 -0.097710952 -0.39700001
0.098739855 -0.09746483 -0.39600003
0.10001519 -0.09746483 -0.39600003
0.10103475 -0.097218707 -0.39500001
0.10230687 -0.097218707 -0.39500001
0.10331676 -0.096972585 -0.39400002
0.10458566 -0.096972585 -0.39400002
0.10558588 -0.096726455 -0.39300001
0.10685156 -0.096726455 -0.39300001
0.10784213 -0.09648034 -0.39200002
0.1091046 -0.09648034 -0.39200002
0.11008551 -0.096234217 -0.39100003
0.11134475 -0.096234217 -0.39100003
0.11260397 -0.096234217 -0.39100003
0.11357199 -0.095988087 -0.39000002
0.11482801 -0.095988087 -0.39000002
0.11608403 -0.095988087 -0.39000002
0.11703918 -0.095741972 -0.38900003
0.11829198 -0.095741972 -0.38900003
0.11954477 -0.095741972 -0.38900003
0.12048702 -0.095495842 -0.38800001
0.1217366 -0.095495842 -0.38800001
0.12298618 -0.095495842 -0.38800001
0.12391556 -0.09524972 -0.38700002
0.12516192 -0.09524972 -0.38700002
0.12608162 -0.095003597 -0.38600001
0.12732476 -0.095003597 -0.38600001
0.12823482 -0.094757475 -0.38500002
0.12947473 -0.094757475 -0.38500002
0.13037512 -0.094511345 -0.384
0.13161182 -0.094511345 -0.384
0.13284852 -0.094511345 -0.384
0.13373601 -0.09426523 -0.38300002
0.13496949 -0.09426523 -0.38300002
0.13584734 -0.094019108 -0.38200003
0.1370776 -0.094019108 -0.38200003
0.13830785 -0.094019108 -0.38200003
0.13917282 -0.093772978 -0.38100001
0.14039984 -0.093772978 -0.38100001
0.14125516 -0.093526863 -0.38000003
0.14247897 -0.093526863 -0.38000003
0.14370278 -0.093526863 -0.38000003
0.1445452 -0.093280733 -0.37900001
0.1457658 -0.093280733 -0.37900001
0.14698637 -0.093280733 -0.37900001
0.14859802 -0.093526863 -0.38000003
0.14982183 -0.093526863 -0.38000003
0.15144312 -0.093772978 -0.38100001
0.15307087 -0.094019108 -0.38200003
0.15712863 -0.095741972 -0.38900003
0.15919572 -0.096234217 -0.39100003
0.16086532 -0.09648034 -0.39200002
0.16254137 -0.096726455 -0.39300001
0.16380705 -0.096726455 -0.39300001
0.16507272 -0.096726455 -0.39300001
0.16633841 -0.096726455 -0.39300001
0.16760407 -0.096726455 -0.39300001
0.16886975 -0.096726455 -0.39300001
0.17013544 -0.096726455 -0.39300001
0.17096499 -0.09648034 -0.39200002
0.17222744 -0.09648034 -0.39200002
0.1734899 -0.09648034 -0.39200002
0.17475235 -0.09648034 -0.39200002
0.17556579 -0.096234217 -0.39100003
0.17682503 -0.096234217 -0.39100003
0.17808427 -0.096234217 -0.39100003
0.17888482 -0.095988087 -0.39000002
0.18014084 -0.095988087 -0.39000002
0.18139686 -0.095988087 -0.39000002
0.18265286 -0.095988087 -0.39000002
0.18343733 -0.095741972 -0.38900003
0.18469013 -0.095741972 -0.38900003
0.18594292 -0.095741972 -0.38900003
0.18719572 -0.095741972 -0.38900003
0.18844852 -0.095741972 -0.38900003
0.18921363 -0.095495842 -0.38800001
0.19046322 -0.095495842 -0.38800001
0.19171278 -0.095495842 -0.38800001
0.19296236 -0.095495842 -0.38800001
0.19421194 -0.095495842 -0.38800001
0.19495775 -0.09524972 -0.38700002
0.19620411 -0.09524972 -0.38700002
0.19745046 -0.09524972 -0.38700002
0.19869682 -0.09524972 -0.38700002
0.20045979 -0.095495842 -0.38800001
0.20170937 -0.095495842 -0.38800001
0.20295896 -0.095495842 -0.38800001
0.20420852 -0.095495842 -0.38800001
0.2054581 -0.095495842 -0.38800001
0.20724045 -0.095741972 -0.38900003
-3.5831215 -1.830184 -7.3400002
-3.4707382 -1.7845541 -7.1570005
-3.3696494 -1.7441604 -6.9950004
-3.2643409 -1.7010239 -6.8220005
-3.1668003 -1.6613781 -6.6630001
-3.0886946 -1.631457 -6.5430002
-2.9888575 -1.5895672 -6.3750005
-2.9282832 -1.5681237 -6.2890005
-2.886296 -1.5564044 -6.2420001
-0.13042866 -0.097493455 -0.39100003
-0.12949978 -0.097742796 -0.39200002
-0.12856445 -0.097992137 -0.39300001
-0.12729877 -0.097992137 -0.39300001
-0.1263538 -0.098241486 -0.39400002
-0.12540236 -0.098490827 -0.39500001
-0.12413025 -0.098490827 -0.39500001
-0.12312508 -0.099737547 -0.40000001
-0.12244604 -0.10023623 -0.40200001
-0.12115137 -0.10023623 -0.40200001
-0.12015487 -0.10048558 -0.40300003
-0.11944684 -0.10098427 -0.40500003
-0.11843424 -0.10123361 -0.40600002
-0.11741517 -0.10148295 -0.40700001
-0.11638968 -0.1017323 -0.40800002
-0.11563979 -0.10223099 -0.41000003
-0.11459818 -0.10248033 -0.41100001
-0.11355015 -0.10272968 -0.41200003
-0.11276805 -0.10322837 -0.41400003
-0.11170392 -0.10347771 -0.41500002
-0.11063333 -0.10372705 -0.41600001
-0.10981902 -0.10422573 -0.41800001
-0.10899185 -0.10472442 -0.42000002
-0.10815178 -0.10522311 -0.42200002
-0.10704576 -0.10547245 -0.42300001
-0.10618316 -0.10597114 -0.42500001
-0.10530768 -0.10646983 -0.42700002
-0.1044193 -0.10696852 -0.42900002
-0.10327785 -0.10721786 -0.43000001
-0.10212999 -0.10746721 -0.43100002
-0.10120941 -0.10796589 -0.43300003
-0.10004542 -0.10821524 -0.43400002
-0.098875009 -0.10846458 -0.43500003
-0.097922221 -0.10896327 -0.43700001
-0.096735694 -0.10921261 -0.43800002
-0.095760368 -0.1097113 -0.44000003
-0.09477216 -0.11020999 -0.44200003
-0.09377107 -0.11070868 -0.44400004
-0.092757083 -0.11120737 -0.44600001
-0.09173023 -0.11170605 -0.44800001
-0.090690494 -0.11220474 -0.45000002
-0.089637868 -0.11270343 -0.45200002
-0.088377275 -0.11295277 -0.45300001
-0.087302111 -0.11345146 -0.45500001
-0.086214058 -0.11395015 -0.45700002
-0.084927708 -0.1141995 -0.45800003
-0.083817109 -0.11469818 -0.46000001
-0.082335651 -0.11469818 -0.46000001
-0.081029974 -0.11494753 -0.46100003
-0.079372741 -0.11469818 -0.46000001
-0.07789129 -0.11469818 -0.46000001
-0.076243728 -0.11444884 -0.45900002
-0.074602611 -0.1141995 -0.45800003
-0.072967924 -0.11395015 -0.45700002
-0.071183242 -0.11345146 -0.45500001
-0.069564663 -0.11320212 -0.45400003
-0.067952521 -0.11295277 -0.45300001
-0.066200048 -0.11245409 -0.45100003
-0.064604014 -0.11220474 -0.45000002
-0.063154757 -0.11220474 -0.45000002
-0.061568394 -0.1119554 -0.44900003
-0.059988458 -0.11170605 -0.44800001
-0.058545649 -0.11170605 -0.44800001
-0.056975383 -0.11145671 -0.44700003
-0.055535793 -0.11145671 -0.44700003
-0.053975184 -0.11120737 -0.44600001
-0.052538816 -0.11120737 -0.44600001
-0.050987873 -0.11095802 -0.44500002
-0.049554724 -0.11095802 -0.44500002
-0.048013441 -0.11070868 -0.44400004
-0.046583518 -0.11070868 -0.44400004
-0.045051891 -0.11045934 -0.44300002
-0.043625187 -0.11045934 -0.44300002
-0.042103224 -0.11020999 -0.44200003
-0.040679742 -0.11020999 -0.44200003
-0.039167441 -0.10996065 -0.44100001
-0.037747175 -0.10996065 -0.44100001
-0.036244538 -0.1097113 -0.44000003
-0.034827497 -0.1097113 -0.44000003
-0.033410452 -0.1097113 -0.44000003
-0.031920694 -0.10946196 -0.43900001
-0.030506874 -0.10946196 -0.43900001
-0.029093048 -0.10946196 -0.43900001
-0.027616177 -0.10921261 -0.43800002
-0.026205573 -0.10921261 -0.43800002
-0.02473836 -0.10896327 -0.43700001
-0.023330979 -0.10896327 -0.43700001
-0.021873429 -0.10871392 -0.43600002
-0.020422321 -0.10846458 -0.43500003
-0.019021381 -0.10846458 -0.43500003
-0.017579932 -0.10821524 -0.43400002
-0.01618221 -0.10821524 -0.43400002
-0.014750426 -0.10796589 -0.43300003
-0.013355926 -0.10796589 -0.43300003
-0.011933802 -0.10771655 -0.43200001
-0.010542523 -0.10771655 -0.43200001
-0.0091512436 -0.10771655 -0.43200001
-0.0077420017 -0.10746721 -0.43100002
-0.0063539431 -0.10746721 -0.43100002
-0.0049658846 -0.10746721 -0.43100002
-0.0035695245 -0.10721786 -0.43000001
-0.0021846867 -0.10721786 -0.43000001
-0.00079984876 -0.10721786 -0.43000001
0.00058362883 -0.10696852 -0.42900002
0.0019652462 -0.10696852 -0.42900002
0.0033468637 -0.10696852 -0.42900002
0.0047174594 -0.10671918 -0.42800003
0.0060816132 -0.10646983 -0.42700002
0.0074567897 -0.10646983 -0.42700002
0.008811282 -0.10622049 -0.42600003
0.010159334 -0.10597114 -0.42500001
0.011528069 -0.10597114 -0.42500001
0.012866459 -0.1057218 -0.42400002
0.014231973 -0.1057218 -0.42400002
0.015560701 -0.10547245 -0.42300001
0.016922995 -0.10547245 -0.42300001
0.018242063 -0.10522311 -0.42200002
0.019601135 -0.10522311 -0.42200002
0.020910541 -0.10497377 -0.42100003
0.022266395 -0.10497377 -0.42100003
0.023622246 -0.10497377 -0.42100003
0.024918769 -0.10472442 -0.42000002
0.026271403 -0.10472442 -0.42000002
0.027558263 -0.10447508 -0.41900003
0.028907677 -0.10447508 -0.41900003
0.030184874 -0.10422573 -0.41800001
0.031531066 -0.10422573 -0.41800001
0.032798603 -0.10397639 -0.41700003
0.034141574 -0.10397639 -0.41700003
0.035399448 -0.10372705 -0.41600001
0.0367392 -0.10372705 -0.41600001
0.037987415 -0.10347771 -0.41500002
0.039229188 -0.10322837 -0.41400003
0.040562499 -0.10322837 -0.41400003
0.041895807 -0.10322837 -0.41400003
0.043124698 -0.10297902 -0.41300002
0.044454787 -0.10297902 -0.41300002
0.045674015 -0.10272968 -0.41200003
0.047000885 -0.10272968 -0.41200003
0.048327751 -0.10272968 -0.41200003
0.049654618 -0.10272968 -0.41200003
0.050857745 -0.10248033 -0.41100001
0.052181393 -0.10248033 -0.41100001
0.053505041 -0.10248033 -0.41100001
0.054828685 -0.10248033 -0.41100001
0.056015711 -0.10223099 -0.41000003
0.05733614 -0.10223099 -0.41000003
0.058656566 -0.10223099 -0.41000003
0.059830707 -0.10198164 -0.40900001
0.06099841 -0.1017323 -0.40800002
0.062312391 -0.1017323 -0.40800002
0.063470431 -0.10148295 -0.40700001
0.064781196 -0.10148295 -0.40700001
0.065929569 -0.10123361 -0.40600002
0.067237116 -0.10123361 -0.40600002
0.068544663 -0.10123361 -0.40600002
0.069680162 -0.10098427 -0.40500003
0.070984483 -0.10098427 -0.40500003
0.072110318 -0.10073492 -0.40400001
0.07341142 -0.10073492 -0.40400001
0.074712522 -0.10073492 -0.40400001
0.075825475 -0.10048558 -0.40300003
0.077123359 -0.10048558 -0.40300003
0.078226641 -0.10023623 -0.40200001
0.079521306 -0.10023623 -0.40200001
0.080614939 -0.099986896 -0.40100002
0.081906378 -0.099986896 -0.40100002
0.082990341 -0.099737547 -0.40000001
0.084278569 -0.099737547 -0.40000001
0.085352868 -0.099488206 -0.39900002
0.086637869 -0.099488206 -0.39900002
0.087922879 -0.099488206 -0.39900002
0.088984296 -0.099238865 -0.39800003
0.090266079 -0.099238865 -0.39800003
0.091547862 -0.099238865 -0.39800003
0.092596397 -0.098989516 -0.39700001
0.093874954 -0.098989516 -0.39700001
0.095153518 -0.098989516 -0.39700001
0.096189171 -0.098740175 -0.39600003
0.097464517 -0.098740175 -0.39600003
0.098490506 -0.098490827 -0.39500001
0.099762626 -0.098490827 -0.39500001
0.10077896 -0.098241486 -0.39400002
0.10204786 -0.098241486 -0.39400002
0.10305453 -0.097992137 -0.39300001
0.10432021 -0.097992137 -0.39300001
0.10531722 -0.097742796 -0.39200002
0.10657968 -0.097742796 -0.39200002
0.10756703 -0.097493455 -0.39100003
0.10882627 -0.097493455 -0.39100003
0.11008551 -0.097493455 -0.39100003
0.11105997 -0.097244106 -0.39000002
0.11231598 -0.097244106 -0.39000002
0.11357199 -0.097244106 -0.39000002
0.11453359 -0.096994765 -0.38900003
0.11578638 -0.096994765 -0.38900003
0.11703918 -0.096994765 -0.38900003
0.11798788 -0.096745417 -0.38800001
0.11923745 -0.096745417 -0.38800001
0.12048702 -0.096745417 -0.38800001
0.12142285 -0.096496075 -0.38700002
0.12266921 -0.096496075 -0.38700002
0.12359536 -0.096246734 -0.38600001
0.12483849 -0.096246734 -0.38600001
0.12608162 -0.096246734 -0.38600001
0.12699491 -0.095997393 -0.38500002
0.12823482 -0.095997393 -0.38500002
0.12913842 -0.095748045 -0.384
0.13037512 -0.095748045 -0.384
0.13126908 -0.095498703 -0.38300002
0.13250256 -0.095498703 -0.38300002
0.13338685 -0.095249362 -0.38200003
0.13461709 -0.095249362 -0.38200003
0.13549173 -0.095000014 -0.38100001
0.13671875 -0.095000014 -0.38100001
0.13758373 -0.094750673 -0.38000003
0.13880754 -0.094750673 -0.38000003
0.14003134 -0.094750673 -0.38000003
0.14088343 -0.094501324 -0.37900001
0.14210401 -0.094501324 -0.37900001
0.14332461 -0.094501324 -0.37900001
0.1445452 -0.094501324 -0.37900001
0.1453812 -0.094251983 -0.37800002
0.14659855 -0.094251983 -0.37800002
0.14820696 -0.094501324 -0.37900001
0.14942755 -0.094501324 -0.37900001
0.15104564 -0.094750673 -0.38000003
0.15267016 -0.095000014 -0.38100001
0.15591684 -0.096246734 -0.38600001
0.15838142 -0.096994765 -0.38900003
0.16045496 -0.097493455 -0.39100003
0.16212778 -0.097742796 -0.39200002
0.16339025 -0.097742796 -0.39200002
0.16507272 -0.097992137 -0.39300001
0.16633841 -0.097992137 -0.39300001
0.1671776 -0.097742796 -0.39200002
0.16844007 -0.097742796 -0.39200002
0.16970253 -0.097742796 -0.39200002
0.17096499 -0.097742796 -0.39200002
0.1717881 -0.097493455 -0.39100003
0.17304733 -0.097493455 -0.39100003
0.17430657 -0.097493455 -0.39100003
0.17511678 -0.097244106 -0.39000002
0.1763728 -0.097244106 -0.39000002
0.1776288 -0.097244106 -0.39000002
0.17888482 -0.097244106 -0.39000002
0.17967895 -0.096994765 -0.38900003
0.18093175 -0.096994765 -0.38900003
0.18218453 -0.096994765 -0.38900003
0.18343733 -0.096994765 -0.38900003
0.18421534 -0.096745417 -0.38800001
0.18546492 -0.096745417 -0.38800001
0.18671449 -0.096745417 -0.38800001
0.18796407 -0.096745417 -0.38800001
0.18921363 -0.096745417 -0.38800001
0.18997233 -0.096496075 -0.38700002
0.19121869 -0.096496075 -0.38700002
0.19246504 -0.096496075 -0.38700002
0.1937114 -0.096496075 -0.38700002
0.19495775 -0.096496075 -0.38700002
0.19569711 -0.096246734 -0.38600001
0.19694024 -0.096246734 -0.38600001
0.19818339 -0.096246734 -0.38600001
0.19994316 -0.096496075 -0.38700002
0.20118952 -0.096496075 -0.38700002
0.20243587 -0.096496075 -0.38700002
0.20368223 -0.096496075 -0.38700002
0.20492858 -0.096496075 -0.38700002
0.20670769 -0.096745417 -0.38800001
-3.5509026 -1.8371534 -7.2740002
-3.4300029 -1.7863882 -7.0730004
-3.3301482 -1.7459778 -6.9130001
-3.2246251 -1.7020316 -6.7390003
-3.1268768 -1.6616213 -6.5790005
-3.0480974 -1.6308084 -6.4570003
-0.13042866 -0.098752692 -0.39100003
-0.12949978 -0.099005252 -0.39200002
-0.12823732 -0.099005252 -0.39200002
-0.12729877 -0.099257812 -0.39300001
-0.1263538 -0.099510379 -0.39400002
-0.12540236 -0.099762939 -0.39500001
-0.12413025 -0.099762939 -0.39500001
-0.1234802 -0.10026807 -0.39700001
-0.12312508 -0.10102576 -0.40000001
-0.12214145 -0.10127833 -0.40100002
-0.12115137 -0.10153089 -0.40200001
-0.12015487 -0.10178346 -0.40300003
-0.11915191 -0.10203602 -0.40400001
-0.11814253 -0.10228859 -0.40500003
-0.11741517 -0.10279372 -0.40700001
-0.11638968 -0.10304628 -0.40800002
-0.11535774 -0.10329884 -0.40900001
-0.11459818 -0.10380397 -0.41100001
-0.11355015 -0.10405654 -0.41200003
-0.11249566 -0.1043091 -0.41300002
-0.11170392 -0.10481423 -0.41500002
-0.11063333 -0.10506679 -0.41600001
-0.10981902 -0.10557193 -0.41800001
-0.10899185 -0.10607705 -0.42000002
-0.10815178 -0.10658218 -0.42200002
-0.10704576 -0.10683475 -0.42300001
-0.10618316 -0.10733987 -0.42500001
-0.10530768 -0.107845 -0.42700002
-0.1041759 -0.10809757 -0.42800003
-0.10327785 -0.1086027 -0.43000001
-0.10212999 -0.10885526 -0.43100002
-0.10097566 -0.10910782 -0.43200001
-0.10004542 -0.10961296 -0.43400002
-0.098875009 -0.10986552 -0.43500003
-0.097922221 -0.11037064 -0.43700001
-0.096735694 -0.11062321 -0.43800002
-0.095760368 -0.11112835 -0.44000003
-0.09477216 -0.11163347 -0.44200003
-0.09377107 -0.1121386 -0.44400004
-0.092757083 -0.11264373 -0.44600001
-0.09173023 -0.11314885 -0.44800001
-0.090488963 -0.11340142 -0.44900003
-0.089439556 -0.11390655 -0.45100003
-0.088377275 -0.11441167 -0.45300001
-0.087302111 -0.11491681 -0.45500001
-0.086025409 -0.11516938 -0.45600003
-0.08474227 -0.11542194 -0.45700002
-0.083452694 -0.1156745 -0.45800003
-0.082156666 -0.11592706 -0.45900002
-0.080678433 -0.11592706 -0.45900002
-0.079027653 -0.1156745 -0.45800003
-0.077552631 -0.1156745 -0.45800003
-0.075911514 -0.11542194 -0.45700002
-0.074276835 -0.11516938 -0.45600003
-0.072648592 -0.11491681 -0.45500001
-0.070870347 -0.11441167 -0.45300001
-0.069258213 -0.11415911 -0.45200002
-0.067652516 -0.11390655 -0.45100003
-0.066053264 -0.11365399 -0.45000002
-0.064460449 -0.11340142 -0.44900003
-0.062874071 -0.11314885 -0.44800001
-0.061431266 -0.11314885 -0.44800001
-0.059854556 -0.11289629 -0.44700003
-0.058414966 -0.11289629 -0.44700003
-0.056847919 -0.11264373 -0.44600001
-0.055411551 -0.11264373 -0.44600001
-0.053854164 -0.11239117 -0.44500002
-0.052421018 -0.11239117 -0.44500002
-0.050873294 -0.1121386 -0.44400004
-0.049332008 -0.11188603 -0.44300002
-0.047905304 -0.11188603 -0.44300002
-0.04637368 -0.11163347 -0.44200003
-0.044950195 -0.11163347 -0.44200003
-0.043428235 -0.1113809 -0.44100001
-0.042007968 -0.1113809 -0.44100001
-0.040495668 -0.11112835 -0.44000003
-0.039078627 -0.11112835 -0.44000003
-0.037661582 -0.11112835 -0.44000003
-0.036162164 -0.11087578 -0.43900001
-0.034748342 -0.11087578 -0.43900001
-0.033258583 -0.11062321 -0.43800002
-0.031847984 -0.11062321 -0.43800002
-0.030437382 -0.11062321 -0.43800002
-0.028960506 -0.11037064 -0.43700001
-0.027553124 -0.11037064 -0.43700001
-0.026085913 -0.11011808 -0.43600002
-0.024681751 -0.11011808 -0.43600002
-0.023224203 -0.10986552 -0.43500003
-0.021823261 -0.10986552 -0.43500003
-0.020375371 -0.10961296 -0.43400002
-0.018977653 -0.10961296 -0.43400002
-0.017539425 -0.10936039 -0.43300003
-0.016144926 -0.10936039 -0.43300003
-0.014716359 -0.10910782 -0.43200001
-0.01332508 -0.10910782 -0.43200001
-0.011906178 -0.10885526 -0.43100002
-0.010518119 -0.10885526 -0.43100002
-0.0091088768 -0.1086027 -0.43000001
-0.0077240388 -0.1086027 -0.43000001
-0.0063392008 -0.1086027 -0.43000001
-0.0049543628 -0.1086027 -0.43000001
-0.0035612234 -0.10835014 -0.42900002
-0.0021796061 -0.10835014 -0.42900002
-0.00079798867 -0.10835014 -0.42900002
0.0005822684 -0.10809757 -0.42800003
0.0019606652 -0.10809757 -0.42800003
0.0033390622 -0.10809757 -0.42800003
0.0047064368 -0.107845 -0.42700002
0.006067371 -0.10759244 -0.42600003
0.007439327 -0.10759244 -0.42600003
0.0087905983 -0.10733987 -0.42500001
0.01013543 -0.10708731 -0.42400002
0.011500944 -0.10708731 -0.42400002
0.012836113 -0.10683475 -0.42300001
0.014198407 -0.10683475 -0.42300001
0.015523915 -0.10658218 -0.42200002
0.01688299 -0.10658218 -0.42200002
0.018198837 -0.10632962 -0.42100003
0.019554688 -0.10632962 -0.42100003
0.020860871 -0.10607705 -0.42000002
0.022213506 -0.10607705 -0.42000002
0.023566136 -0.10607705 -0.42000002
0.02485944 -0.10582449 -0.41900003
0.026208851 -0.10582449 -0.41900003
0.02749249 -0.10557193 -0.41800001
0.028838683 -0.10557193 -0.41800001
0.030112661 -0.10531936 -0.41700003
0.031455632 -0.10531936 -0.41700003
0.032719951 -0.10506679 -0.41600001
0.0340597 -0.10506679 -0.41600001
0.035314355 -0.10481423 -0.41500002
0.036650885 -0.10481423 -0.41500002
0.037895881 -0.10456167 -0.41400003
0.039229188 -0.10456167 -0.41400003
0.04046452 -0.1043091 -0.41300002
0.041794609 -0.1043091 -0.41300002
0.043020282 -0.10405654 -0.41200003
0.044347148 -0.10405654 -0.41200003
0.045674015 -0.10405654 -0.41200003
0.046886805 -0.10380397 -0.41100001
0.04821045 -0.10380397 -0.41100001
0.049534097 -0.10380397 -0.41100001
0.050734006 -0.10355141 -0.41000003
0.052054431 -0.10355141 -0.41000003
0.05337486 -0.10355141 -0.41000003
0.054695282 -0.10355141 -0.41000003
0.055879086 -0.10329884 -0.40900001
0.057196297 -0.10329884 -0.40900001
0.058370434 -0.10304628 -0.40800002
0.059684422 -0.10304628 -0.40800002
0.060848903 -0.10279372 -0.40700001
0.062159661 -0.10279372 -0.40700001
0.063314483 -0.10254115 -0.40600002
0.06462203 -0.10254115 -0.40600002
0.065767184 -0.10228859 -0.40500003
0.067071512 -0.10228859 -0.40500003
0.068375841 -0.10228859 -0.40500003
0.069508106 -0.10203602 -0.40400001
0.070809208 -0.10203602 -0.40400001
0.071931832 -0.10178346 -0.40300003
0.073229715 -0.10178346 -0.40300003
0.074342661 -0.10153089 -0.40200001
0.075637318 -0.10153089 -0.40200001
0.076931983 -0.10153089 -0.40200001
0.078032054 -0.10127833 -0.40100002
0.0793235 -0.10127833 -0.40100002
0.0804139 -0.10102576 -0.40000001
0.081702121 -0.10102576 -0.40000001
0.082782872 -0.1007732 -0.39900002
0.084067874 -0.1007732 -0.39900002
0.085138954 -0.10052064 -0.39800003
0.086420737 -0.10052064 -0.39800003
0.08770252 -0.10052064 -0.39800003
0.088760711 -0.10026807 -0.39700001
0.090039276 -0.10026807 -0.39700001
0.09131784 -0.10026807 -0.39700001
0.092363156 -0.10001551 -0.39600003
0.093638495 -0.10001551 -0.39600003
0.09491384 -0.10001551 -0.39600003
0.095946267 -0.099762939 -0.39500001
0.097218387 -0.099762939 -0.39500001
0.098241165 -0.099510379 -0.39400002
0.099510066 -0.099510379 -0.39400002
0.10052317 -0.099257812 -0.39300001
0.10178886 -0.099257812 -0.39300001
0.10279231 -0.099005252 -0.39200002
0.10405477 -0.099005252 -0.39200002
0.10531722 -0.099005252 -0.39200002
0.10630779 -0.098752692 -0.39100003
0.10756703 -0.098752692 -0.39100003
0.10854793 -0.098500118 -0.39000002
0.10980395 -0.098500118 -0.39000002
0.11105997 -0.098500118 -0.39000002
0.112028 -0.098247558 -0.38900003
0.11328079 -0.098247558 -0.38900003
0.11453359 -0.098247558 -0.38900003
0.11548873 -0.097994991 -0.38800001
0.1167383 -0.097994991 -0.38800001
0.11798788 -0.097994991 -0.38800001
0.11893014 -0.097742431 -0.38700002
0.12017649 -0.097742431 -0.38700002
0.12142285 -0.097742431 -0.38700002
0.12235223 -0.097489864 -0.38600001
0.12359536 -0.097489864 -0.38600001
0.12451509 -0.097237296 -0.38500002
0.12575498 -0.097237296 -0.38500002
0.12666504 -0.096984729 -0.384
0.12790173 -0.096984729 -0.384
0.12880214 -0.096732169 -0.38300002
0.13003561 -0.096732169 -0.38300002
0.13092634 -0.09647961 -0.38200003
0.1321566 -0.09647961 -0.38200003
0.13303766 -0.096227042 -0.38100001
0.13426469 -0.096227042 -0.38100001
0.13513611 -0.095974475 -0.38000003
0.13635992 -0.095974475 -0.38000003
0.13722166 -0.095721908 -0.37900001
0.13844225 -0.095721908 -0.37900001
0.13966283 -0.095721908 -0.37900001
0.14051171 -0.095469348 -0.37800002
0.14172907 -0.095469348 -0.37800002
0.14294645 -0.095469348 -0.37800002
0.14416382 -0.095469348 -0.37800002
0.1453812 -0.095469348 -0.37800002
0.14659855 -0.095469348 -0.37800002
0.14781593 -0.095469348 -0.37800002
0.14903329 -0.095469348 -0.37800002
0.15064815 -0.095721908 -0.37900001
0.15226945 -0.095974475 -0.38000003
0.15551291 -0.097237296 -0.38500002
0.15797426 -0.097994991 -0.38800001
0.16004458 -0.098500118 -0.39000002
0.1617142 -0.098752692 -0.39100003
0.16297343 -0.098752692 -0.39100003
0.16465271 -0.099005252 -0.39200002
0.16591516 -0.099005252 -0.39200002
0.1671776 -0.099005252 -0.39200002
0.16844007 -0.099005252 -0.39200002
0.16926962 -0.098752692 -0.39100003
0.17052886 -0.098752692 -0.39100003
0.1717881 -0.098752692 -0.39100003
0.17260475 -0.098500118 -0.39000002
0.17386076 -0.098500118 -0.39000002
0.17511678 -0.098500118 -0.39000002
0.17592056 -0.098247558 -0.38900003
0.17717336 -0.098247558 -0.38900003
0.17842615 -0.098247558 -0.38900003
0.17967895 -0.098247558 -0.38900003
0.18046662 -0.097994991 -0.38800001
0.18171619 -0.097994991 -0.38800001
0.18296576 -0.097994991 -0.38800001
0.18421534 -0.097994991 -0.38800001
0.18498692 -0.097742431 -0.38700002
0.18623327 -0.097742431 -0.38700002
0.18747963 -0.097742431 -0.38700002
0.18872598 -0.097742431 -0.38700002
0.18948144 -0.097489864 -0.38600001
0.19072457 -0.097489864 -0.38600001
0.19196771 -0.097489864 -0.38600001
0.19321084 -0.097489864 -0.38600001
0.19445398 -0.097489864 -0.38600001
0.19569711 -0.097489864 -0.38600001
0.19643004 -0.097237296 -0.38500002
0.19818339 -0.097489864 -0.38600001
0.1994265 -0.097489864 -0.38600001
0.20066963 -0.097489864 -0.38600001
0.20191278 -0.097489864 -0.38600001
0.20315591 -0.097489864 -0.38600001
0.20439903 -0.097489864 -0.38600001
0.20617494 -0.097742431 -0.38700002
-3.519172 -1.8439538 -7.2090001
-3.3849032 -1.7853792 -6.9800005
-3.2843845 -1.7439419 -6.8180003
-3.1782105 -1.6989237 -6.6420002
-3.0774477 -1.6562077 -6.4750004
-2.992394 -1.6214209 -6.3390002
-2.8500807 -1.5549169 -6.0790005
-2.7969785 -1.5365003 -6.0070004
-0.12883906 -0.099756137 -0.39000002
-0.12823732 -0.10026771 -0.39200002
-0.12729877 -0.10052349 -0.39300001
-0.1263538 -0.10077928 -0.39400002
-0.12540236 -0.10103506 -0.39500001
-0.12413025 -0.10103506 -0.39500001
-0.1234802 -0.10154663 -0.39700001
-0.12281727 -0.1020582 -0.39900002
-0.12183686 -0.10231399 -0.40000001
-0.12085001 -0.10256977 -0.40100002
-0.12015487 -0.10308135 -0.40300003
-0.11915191 -0.10333712 -0.40400001
-0.11814253 -0.10359292 -0.40500003
-0.11712669 -0.1038487 -0.40600002
-0.11638968 -0.10436027 -0.40800002
-0.11535774 -0.10461605 -0.40900001
-0.11459818 -0.10512762 -0.41100001
-0.11355015 -0.10538341 -0.41200003
-0.11249566 -0.10563919 -0.41300002
-0.11170392 -0.10615076 -0.41500002
-0.11063333 -0.10640655 -0.41600001
-0.10981902 -0.10691812 -0.41800001
-0.10899185 -0.10742968 -0.42000002
-0.10815178 -0.10794125 -0.42200002
-0.10704576 -0.10819704 -0.42300001
-0.10618316 -0.10870861 -0.42500001
-0.10530768 -0.10922018 -0.42700002
-0.1041759 -0.10947597 -0.42800003
-0.10303768 -0.10973175 -0.42900002
-0.10212999 -0.11024332 -0.43100002
-0.10097566 -0.11049911 -0.43200001
-0.099814907 -0.11075489 -0.43300003
-0.098875009 -0.11126646 -0.43500003
-0.097698145 -0.11152225 -0.43600002
-0.096735694 -0.11203381 -0.43800002
-0.095760368 -0.11254539 -0.44000003
-0.09477216 -0.11305696 -0.44200003
-0.09377107 -0.11356853 -0.44400004
-0.092757083 -0.11408009 -0.44600001
-0.09173023 -0.11459167 -0.44800001
-0.090488963 -0.11484745 -0.44900003
-0.089439556 -0.11535902 -0.45100003
-0.088377275 -0.11587059 -0.45300001
-0.087110236 -0.11612638 -0.45400003
-0.085836753 -0.11638216 -0.45500001
-0.08455684 -0.11663795 -0.45600003
-0.083270475 -0.11689373 -0.45700002
-0.08179868 -0.11689373 -0.45700002
-0.080326892 -0.11689373 -0.45700002
-0.078682549 -0.11663795 -0.45600003
-0.077213973 -0.11663795 -0.45600003
-0.075579301 -0.11638216 -0.45500001
-0.073951058 -0.11612638 -0.45400003
-0.072329253 -0.11587059 -0.45300001
-0.0707139 -0.11561481 -0.45200002
-0.069104984 -0.11535902 -0.45100003
-0.067502506 -0.11510324 -0.45000002
-0.06590648 -0.11484745 -0.44900003
-0.064316884 -0.11459167 -0.44800001
-0.062733732 -0.11433588 -0.44700003
-0.061294146 -0.11433588 -0.44700003
-0.05972065 -0.11408009 -0.44600001
-0.058284283 -0.11408009 -0.44600001
-0.056720462 -0.11382432 -0.44500002
-0.055287313 -0.11382432 -0.44500002
-0.053733144 -0.11356853 -0.44400004
-0.052185416 -0.11331274 -0.44300002
-0.050758712 -0.11331274 -0.44300002
-0.049220648 -0.11305696 -0.44200003
-0.047797166 -0.11305696 -0.44200003
-0.046268761 -0.11280117 -0.44100001
-0.044746801 -0.11254539 -0.44000003
-0.043329757 -0.11254539 -0.44000003
-0.041817453 -0.1122896 -0.43900001
-0.040403631 -0.1122896 -0.43900001
-0.038989812 -0.1122896 -0.43900001
-0.03749039 -0.11203381 -0.43800002
-0.03607979 -0.11203381 -0.43800002
-0.034590036 -0.11177803 -0.43700001
-0.033182651 -0.11177803 -0.43700001
-0.03177527 -0.11177803 -0.43700001
-0.030298399 -0.11152225 -0.43600002
-0.028894234 -0.11152225 -0.43600002
-0.027427025 -0.11126646 -0.43500003
-0.026026083 -0.11126646 -0.43500003
-0.024568532 -0.11101068 -0.43400002
-0.023170812 -0.11101068 -0.43400002
-0.021722924 -0.11075489 -0.43300003
-0.020328425 -0.11075489 -0.43300003
-0.018890198 -0.11049911 -0.43200001
-0.017498918 -0.11049911 -0.43200001
-0.016070353 -0.11024332 -0.43100002
-0.014682294 -0.11024332 -0.43100002
-0.01326339 -0.10998753 -0.43000001
-0.011878553 -0.10998753 -0.43000001
-0.010469311 -0.10973175 -0.42900002
-0.0090876929 -0.10973175 -0.42900002
-0.0077060759 -0.10973175 -0.42900002
-0.0063244584 -0.10973175 -0.42900002
-0.0049313195 -0.10947597 -0.42800003
-0.0035529223 -0.10947597 -0.42800003
-0.0021745255 -0.10947597 -0.42800003
-0.00079612859 -0.10947597 -0.42800003
0.00058090792 -0.10922018 -0.42700002
0.0019560843 -0.10922018 -0.42700002
0.0033234591 -0.1089644 -0.42600003
0.004695415 -0.1089644 -0.42600003
0.0060531278 -0.10870861 -0.42500001
0.0074218633 -0.10870861 -0.42500001
0.0087699145 -0.10845283 -0.42400002
0.010111525 -0.10819704 -0.42300001
0.011473819 -0.10819704 -0.42300001
0.012805767 -0.10794125 -0.42200002
0.014164841 -0.10794125 -0.42200002
0.015487129 -0.10768548 -0.42100003
0.016842982 -0.10768548 -0.42100003
0.018155608 -0.10742968 -0.42000002
0.019508239 -0.10742968 -0.42000002
0.020811204 -0.1071739 -0.41900003
0.022160616 -0.1071739 -0.41900003
0.023510028 -0.1071739 -0.41900003
0.024800109 -0.10691812 -0.41800001
0.0261463 -0.10691812 -0.41800001
0.02742672 -0.10666233 -0.41700003
0.028769692 -0.10666233 -0.41700003
0.030040449 -0.10640655 -0.41600001
0.031380199 -0.10640655 -0.41600001
0.032641295 -0.10615076 -0.41500002
0.033977825 -0.10615076 -0.41500002
0.035229262 -0.10589498 -0.41400003
0.036562573 -0.10589498 -0.41400003
0.037804343 -0.10563919 -0.41300002
0.039134428 -0.10563919 -0.41300002
0.040366545 -0.10538341 -0.41200003
0.041693412 -0.10538341 -0.41200003
0.042915862 -0.10512762 -0.41100001
0.044239506 -0.10512762 -0.41100001
0.045563154 -0.10512762 -0.41100001
0.046772726 -0.10487184 -0.41000003
0.048093151 -0.10487184 -0.41000003
0.049413577 -0.10487184 -0.41000003
0.050610263 -0.10461605 -0.40900001
0.051927466 -0.10461605 -0.40900001
0.053244676 -0.10461605 -0.40900001
0.054561879 -0.10461605 -0.40900001
0.055742465 -0.10436027 -0.40800002
0.057056453 -0.10436027 -0.40800002
0.058227368 -0.10410448 -0.40700001
0.059538133 -0.10410448 -0.40700001
0.060699396 -0.1038487 -0.40600002
0.062006939 -0.1038487 -0.40600002
0.063158542 -0.10359292 -0.40500003
0.064462863 -0.10359292 -0.40500003
0.065604798 -0.10333712 -0.40400001
0.066905901 -0.10333712 -0.40400001
0.06803818 -0.10308135 -0.40300003
0.069336057 -0.10308135 -0.40300003
0.07063394 -0.10308135 -0.40300003
0.071753338 -0.10282555 -0.40200001
0.073047996 -0.10282555 -0.40200001
0.07415773 -0.10256977 -0.40100002
0.075449169 -0.10256977 -0.40100002
0.076549239 -0.10231399 -0.40000001
0.07783746 -0.10231399 -0.40000001
0.078927867 -0.1020582 -0.39900002
0.080212869 -0.1020582 -0.39900002
0.081293613 -0.10180242 -0.39800003
0.082575396 -0.10180242 -0.39800003
0.083857179 -0.10180242 -0.39800003
0.084925033 -0.10154663 -0.39700001
0.086203597 -0.10154663 -0.39700001
0.087261803 -0.10129085 -0.39600003
0.088537142 -0.10129085 -0.39600003
0.08981248 -0.10129085 -0.39600003
0.091087818 -0.10129085 -0.39600003
0.092129909 -0.10103506 -0.39500001
0.093402036 -0.10103506 -0.39500001
0.094674155 -0.10103506 -0.39500001
0.095703371 -0.10077928 -0.39400002
0.096972272 -0.10077928 -0.39400002
0.097991824 -0.10052349 -0.39300001
0.099257492 -0.10052349 -0.39300001
0.10052317 -0.10052349 -0.39300001
0.10152985 -0.10026771 -0.39200002
0.10279231 -0.10026771 -0.39200002
0.10378933 -0.10001193 -0.39100003
0.10504855 -0.10001193 -0.39100003
0.1060359 -0.099756137 -0.39000002
0.10729192 -0.099756137 -0.39000002
0.10854793 -0.099756137 -0.39000002
0.10952241 -0.099500358 -0.38900003
0.11077521 -0.099500358 -0.38900003
0.11174 -0.099244565 -0.38800001
0.11298957 -0.099244565 -0.38800001
0.11423915 -0.099244565 -0.38800001
0.11548873 -0.099244565 -0.38800001
0.11643744 -0.098988786 -0.38700002
0.11768379 -0.098988786 -0.38700002
0.11893014 -0.098988786 -0.38700002
0.11986595 -0.098732993 -0.38600001
0.12110909 -0.098732993 -0.38600001
0.12203526 -0.098477215 -0.38500002
0.12327517 -0.098477215 -0.38500002
0.12419166 -0.098221421 -0.384
0.12542835 -0.098221421 -0.384
0.12633519 -0.097965643 -0.38300002
0.12756866 -0.097965643 -0.38300002
0.12846585 -0.097709864 -0.38200003
0.1296961 -0.097709864 -0.38200003
0.1305836 -0.097454071 -0.38100001
0.13181064 -0.097454071 -0.38100001
0.13268848 -0.097198293 -0.38000003
0.1339123 -0.097198293 -0.38000003
0.13478048 -0.096942499 -0.37900001
0.13600107 -0.096942499 -0.37900001
0.13722166 -0.096942499 -0.37900001
0.13807698 -0.096686721 -0.37800002
0.13929434 -0.096686721 -0.37800002
0.14051171 -0.096686721 -0.37800002
0.14135413 -0.096430928 -0.377
0.14256828 -0.096430928 -0.377
0.14378242 -0.096430928 -0.377
0.14499658 -0.096430928 -0.377
0.14621072 -0.096430928 -0.377
0.14742486 -0.096430928 -0.377
0.14863902 -0.096430928 -0.377
0.15025066 -0.096686721 -0.37800002
0.15186873 -0.096942499 -0.37900001
0.15349327 -0.097198293 -0.38000003
0.15797426 -0.099244565 -0.38800001
0.15963422 -0.099500358 -0.38900003
0.1613006 -0.099756137 -0.39000002
0.16297343 -0.10001193 -0.39100003
0.16423267 -0.10001193 -0.39100003
0.16549191 -0.10001193 -0.39100003
0.16675115 -0.10001193 -0.39100003
0.16801038 -0.10001193 -0.39100003
0.16926962 -0.10001193 -0.39100003
0.17009272 -0.099756137 -0.39000002
0.17134874 -0.099756137 -0.39000002
0.17260475 -0.099756137 -0.39000002
0.17341498 -0.099500358 -0.38900003
0.17466776 -0.099500358 -0.38900003
0.17592056 -0.099500358 -0.38900003
0.17671789 -0.099244565 -0.38800001
0.17796746 -0.099244565 -0.38800001
0.17921704 -0.099244565 -0.38800001
0.18046662 -0.099244565 -0.38800001
0.18124785 -0.098988786 -0.38700002
0.18249421 -0.098988786 -0.38700002
0.18374056 -0.098988786 -0.38700002
0.18498692 -0.098988786 -0.38700002
0.18575205 -0.098732993 -0.38600001
0.18699518 -0.098732993 -0.38600001
0.18823831 -0.098732993 -0.38600001
0.18948144 -0.098732993 -0.38600001
0.19023047 -0.098477215 -0.38500002
0.19147038 -0.098477215 -0.38500002
0.19271031 -0.098477215 -0.38500002
0.19395022 -0.098477215 -0.38500002
0.19519013 -0.098477215 -0.38500002
0.19643004 -0.098477215 -0.38500002
0.19766997 -0.098477215 -0.38500002
0.19890985 -0.098477215 -0.38500002
0.20014977 -0.098477215 -0.38500002
0.20138969 -0.098477215 -0.38500002
0.2026296 -0.098477215 -0.38500002
0.20386952 -0.098477215 -0.38500002
0.20510943 -0.098477215 -0.38500002
-3.5240538 -1.8697609 -7.2190003
-3.3470776 -1.7876562 -6.9020004
-3.2472918 -1.7459562 -6.7410002
-3.1428013 -1.7011483 -6.5680003
-3.042752 -1.6581534 -6.4020004
-2.9588778 -1.6234466 -6.2680001
-2.8388286 -1.5682784 -6.0550003
-2.80955 -1.5628394 -6.0340004
-0.13009508 -0.10101216 -0.39000002
-0.12883906 -0.10101216 -0.39000002
-0.1279102 -0.10127117 -0.39100003
-0.12697487 -0.10153016 -0.39200002
-0.1260331 -0.10178917 -0.39300001
-0.12508489 -0.10204818 -0.39400002
-0.12413025 -0.10230719 -0.39500001
-0.1234802 -0.10282519 -0.39700001
-0.12250946 -0.10308421 -0.39800003
-0.12183686 -0.10360221 -0.40000001
-0.12085001 -0.10386122 -0.40100002
-0.11985672 -0.10412022 -0.40200001
-0.11885698 -0.10437923 -0.40300003
-0.11785082 -0.10463823 -0.40400001
-0.11712669 -0.10515624 -0.40600002
-0.11610441 -0.10541525 -0.40700001
-0.11535774 -0.10593326 -0.40900001
-0.11459818 -0.10645127 -0.41100001
-0.11355015 -0.10671028 -0.41200003
-0.11249566 -0.10696928 -0.41300002
-0.11170392 -0.1074873 -0.41500002
-0.11063333 -0.1077463 -0.41600001
-0.10981902 -0.10826431 -0.41800001
-0.10899185 -0.10878232 -0.42000002
-0.10815178 -0.10930033 -0.42200002
-0.10704576 -0.10955933 -0.42300001
-0.10618316 -0.11007735 -0.42500001
-0.10530768 -0.11059536 -0.42700002
-0.1041759 -0.11085437 -0.42800003
-0.10303768 -0.11111337 -0.42900002
-0.10189302 -0.11137237 -0.43000001
-0.10097566 -0.11189038 -0.43200001
-0.099814907 -0.1121494 -0.43300003
-0.098647706 -0.1124084 -0.43400002
-0.097698145 -0.11292641 -0.43600002
-0.096735694 -0.11344443 -0.43800002
-0.095760368 -0.11396243 -0.44000003
-0.09477216 -0.11448044 -0.44200003
-0.09377107 -0.11499846 -0.44400004
-0.092549115 -0.11525746 -0.44500002
-0.09152548 -0.11577547 -0.44700003
-0.090488963 -0.11629348 -0.44900003
-0.089439556 -0.1168115 -0.45100003
-0.088182181 -0.1170705 -0.45200002
-0.087110236 -0.11758851 -0.45400003
-0.085836753 -0.11784752 -0.45500001
-0.08455684 -0.11810652 -0.45600003
-0.083088264 -0.11810652 -0.45600003
-0.081619695 -0.11810652 -0.45600003
-0.080151126 -0.11810652 -0.45600003
-0.078510001 -0.11784752 -0.45500001
-0.076875314 -0.11758851 -0.45400003
-0.075247079 -0.1173295 -0.45300001
-0.073625281 -0.1170705 -0.45200002
-0.072009921 -0.1168115 -0.45100003
-0.070401005 -0.11655249 -0.45000002
-0.068798535 -0.11629348 -0.44900003
-0.067202494 -0.11603448 -0.44800001
-0.065759689 -0.11603448 -0.44800001
-0.064173318 -0.11577547 -0.44700003
-0.062593386 -0.11551646 -0.44600001
-0.061157022 -0.11551646 -0.44600001
-0.059586752 -0.11525746 -0.44500002
-0.058153603 -0.11525746 -0.44500002
-0.056593001 -0.11499846 -0.44400004
-0.055038828 -0.11473945 -0.44300002
-0.05361212 -0.11473945 -0.44300002
-0.052067619 -0.11448044 -0.44200003
-0.050644137 -0.11448044 -0.44200003
-0.049109288 -0.11422144 -0.44100001
-0.047580887 -0.11396243 -0.44000003
-0.046163846 -0.11396243 -0.44000003
-0.044645101 -0.11370342 -0.43900001
-0.043231279 -0.11370342 -0.43900001
-0.041722201 -0.11344443 -0.43800002
-0.040311597 -0.11344443 -0.43800002
-0.038812179 -0.11318541 -0.43700001
-0.037404794 -0.11318541 -0.43700001
-0.035997417 -0.11318541 -0.43700001
-0.034510881 -0.11292641 -0.43600002
-0.033106718 -0.11292641 -0.43600002
-0.031629845 -0.11266741 -0.43500003
-0.030228907 -0.11266741 -0.43500003
-0.028827965 -0.11266741 -0.43500003
-0.027363973 -0.1124084 -0.43400002
-0.025966253 -0.1124084 -0.43400002
-0.024511924 -0.1121494 -0.43300003
-0.023064034 -0.11189038 -0.43200001
-0.021672755 -0.11189038 -0.43200001
-0.020234529 -0.11163139 -0.43100002
-0.018846471 -0.11163139 -0.43100002
-0.017417904 -0.11137237 -0.43000001
-0.016033066 -0.11137237 -0.43000001
-0.014614162 -0.11111337 -0.42900002
-0.013232545 -0.11111337 -0.42900002
-0.011823304 -0.11085437 -0.42800003
-0.010444907 -0.11085437 -0.42800003
-0.00906651 -0.11085437 -0.42800003
-0.0076701501 -0.11059536 -0.42700002
-0.0062949737 -0.11059536 -0.42700002
-0.0049197976 -0.11059536 -0.42700002
-0.0035446209 -0.11059536 -0.42700002
-0.0021643643 -0.11033636 -0.42600003
-0.00079240836 -0.11033636 -0.42600003
0.00057954749 -0.11033636 -0.42600003
0.0019469222 -0.11007735 -0.42500001
0.0033156574 -0.11007735 -0.42500001
0.0046733706 -0.10981835 -0.42400002
0.0060388856 -0.10981835 -0.42400002
0.0073869368 -0.10955933 -0.42300001
0.0087492308 -0.10955933 -0.42300001
0.010087621 -0.10930033 -0.42200002
0.01141957 -0.10904133 -0.42100003
0.012775423 -0.10904133 -0.42100003
0.014097709 -0.10878232 -0.42000002
0.015450342 -0.10878232 -0.42000002
0.016802974 -0.10878232 -0.42000002
0.01811238 -0.10852332 -0.41900003
0.019461792 -0.10852332 -0.41900003
0.020761535 -0.10826431 -0.41800001
0.022107726 -0.10826431 -0.41800001
0.023397807 -0.10800531 -0.41700003
0.024740778 -0.10800531 -0.41700003
0.026021197 -0.1077463 -0.41600001
0.027360946 -0.1077463 -0.41600001
0.028700698 -0.1077463 -0.41600001
0.029968236 -0.1074873 -0.41500002
0.031304765 -0.1074873 -0.41500002
0.032562643 -0.10722829 -0.41400003
0.033895951 -0.10722829 -0.41400003
0.035144165 -0.10696928 -0.41300002
0.036474254 -0.10696928 -0.41300002
0.037712809 -0.10671028 -0.41200003
0.039039675 -0.10671028 -0.41200003
0.040268566 -0.10645127 -0.41100001
0.041592211 -0.10645127 -0.41100001
0.042811446 -0.10619227 -0.41000003
0.044131871 -0.10619227 -0.41000003
0.045452297 -0.10619227 -0.41000003
0.046658643 -0.10593326 -0.40900001
0.047975849 -0.10593326 -0.40900001
0.049293052 -0.10593326 -0.40900001
0.050486524 -0.10567426 -0.40800002
0.051800508 -0.10567426 -0.40800002
0.053114496 -0.10567426 -0.40800002
0.054428477 -0.10567426 -0.40800002
0.05560584 -0.10541525 -0.40700001
0.056916606 -0.10541525 -0.40700001
0.058084305 -0.10515624 -0.40600002
0.059391852 -0.10515624 -0.40600002
0.060549892 -0.10489725 -0.40500003
0.061854213 -0.10489725 -0.40500003
0.063002594 -0.10463823 -0.40400001
0.064303696 -0.10463823 -0.40400001
0.065442406 -0.10437923 -0.40300003
0.066740297 -0.10437923 -0.40300003
0.06786935 -0.10412022 -0.40200001
0.069164008 -0.10412022 -0.40200001
0.070283405 -0.10386122 -0.40100002
0.071574844 -0.10386122 -0.40100002
0.072866291 -0.10386122 -0.40100002
0.073972791 -0.10360221 -0.40000001
0.075261019 -0.10360221 -0.40000001
0.076357871 -0.1033432 -0.39900002
0.077642865 -0.1033432 -0.39900002
0.078730054 -0.10308421 -0.39800003
0.080011837 -0.10308421 -0.39800003
0.081089355 -0.10282519 -0.39700001
0.082367919 -0.10282519 -0.39700001
0.083646476 -0.10282519 -0.39700001
0.08471112 -0.10256619 -0.39600003
0.085986465 -0.10256619 -0.39600003
0.087041445 -0.10230719 -0.39500001
0.088313557 -0.10230719 -0.39500001
0.089585677 -0.10230719 -0.39500001
0.090857796 -0.10230719 -0.39500001
0.091896676 -0.10204818 -0.39400002
0.093165576 -0.10204818 -0.39400002
0.094434477 -0.10204818 -0.39400002
0.09546046 -0.10178917 -0.39300001
0.096726142 -0.10178917 -0.39300001
0.097991824 -0.10178917 -0.39300001
0.099004932 -0.10153016 -0.39200002
0.1002674 -0.10153016 -0.39200002
0.10127085 -0.10127117 -0.39100003
0.10253009 -0.10127117 -0.39100003
0.10378933 -0.10127117 -0.39100003
0.10477988 -0.10101216 -0.39000002
0.1060359 -0.10101216 -0.39000002
0.10701682 -0.10075315 -0.38900003
0.10826961 -0.10075315 -0.38900003
0.10924085 -0.10049415 -0.38800001
0.11049043 -0.10049415 -0.38800001
0.11174 -0.10049415 -0.38800001
0.11269837 -0.10023514 -0.38700002
0.11394472 -0.10023514 -0.38700002
0.11519108 -0.10023514 -0.38700002
0.11613656 -0.09997613 -0.38600001
0.1173797 -0.09997613 -0.38600001
0.11862282 -0.09997613 -0.38600001
0.11955542 -0.099717133 -0.38500002
0.12079534 -0.099717133 -0.38500002
0.12203526 -0.099717133 -0.38500002
0.12295497 -0.099458121 -0.384
0.12419166 -0.099458121 -0.384
0.12510172 -0.099199116 -0.38300002
0.12600534 -0.098940112 -0.38200003
0.12723559 -0.098940112 -0.38200003
0.12812954 -0.098681107 -0.38100001
0.12935658 -0.098681107 -0.38100001
0.13024087 -0.098422103 -0.38000003
0.13146468 -0.098422103 -0.38000003
0.1323393 -0.098163091 -0.37900001
0.13355988 -0.098163091 -0.37900001
