# .PCD v0.7 - Point Cloud Data file format
VERSION 0.7
FIELDS x y z
SIZE 4 4 4
TYPE F F F
COUNT 1 1 1
WIDTH 1336
HEIGHT 1
VIEWPOINT 0 0 0 1 0 0 0
POINTS 1336
DATA ascii
0.19007812 0.041717447 -0.67900002
0.19088995 0.04165601 -0.67800003
0.19226488 0.041717447 -0.67900002
0.19335826 0.041717447 -0.67900002
0.19445163 0.041717447 -0.67900002
-0.097550422 0.052410435 -0.87600005
-0.096030079 0.052350607 -0.87500006
-0.094621085 0.052350607 -0.87500006
-0.09321209 0.052350607 -0.87500006
-0.091698177 0.052290775 -0.87400001
-0.09018749 0.052230947 -0.87300003
-0.088680021 0.052171119 -0.87200004
-0.087075688 0.052051462 -0.87000006
-0.085576266 0.05199163 -0.86900002
-0.083983205 0.05187197 -0.86700004
-0.082491837 0.051812142 -0.86600006
-0.080910049 0.051692482 -0.86400002
-0.079334699 0.051572826 -0.86200005
-0.077765785 0.051453166 -0.86000001
-0.076203324 0.051333509 -0.85800004
-0.074647292 0.051213853 -0.85600007
-0.073097706 0.051094189 -0.85400003
-0.071554564 0.050974533 -0.85200006
-0.070100233 0.050914701 -0.85100001
-0.068487592 0.050735217 -0.84800005
-0.066963777 0.050615557 -0.84600002
-0.065446392 0.0504959 -0.84400004
-0.063935451 0.05037624 -0.84200007
-0.062505282 0.050316408 -0.84100002
-0.061005611 0.050196752 -0.83900005
-0.059583489 0.050136924 -0.83800006
-0.058095094 0.050017264 -0.83600003
-0.056748901 0.050017264 -0.83600003
-0.055402707 0.050017264 -0.83600003
-0.053991858 0.049957436 -0.83500004
-0.052710325 0.050017264 -0.83600003
-0.051364131 0.050017264 -0.83600003
-0.050017942 0.050017264 -0.83600003
-0.048671752 0.050017264 -0.83600003
-0.047325559 0.050017264 -0.83600003
-0.045979369 0.050017264 -0.83600003
-0.044579789 0.049957436 -0.83500004
-0.043183431 0.049897607 -0.83400005
-0.041790292 0.049837779 -0.83300006
-0.040400371 0.049777947 -0.83200002
-0.039013673 0.049718119 -0.83100003
-0.037630197 0.049658291 -0.83000004
-0.036249939 0.049598459 -0.82900006
-0.034872904 0.049538631 -0.82800007
-0.033539597 0.049538631 -0.82800007
-0.032206286 0.049538631 -0.82800007
-0.030872976 0.049538631 -0.82800007
-0.029539667 0.049538631 -0.82800007
-0.028206356 0.049538631 -0.82800007
-0.026873048 0.049538631 -0.82800007
-0.025539739 0.049538631 -0.82800007
-0.024206432 0.049538631 -0.82800007
-0.010953549 0.044453144 -0.74300003
-0.0097571136 0.044453144 -0.74300003
-0.008560678 0.044453144 -0.74300003
-0.0073543312 0.044393316 -0.74200004
-0.0061595053 0.044393316 -0.74200004
-0.0049579893 0.044333484 -0.74100006
-0.0037647744 0.044333484 -0.74100006
-0.0025680885 0.044273652 -0.74000001
-0.0013764839 0.044273652 -0.74000001
-0.00018462927 0.044213824 -0.73900002
0.0010040049 0.044153996 -0.73800004
0.0021864476 0.044034339 -0.73600006
0.0033670301 0.043974508 -0.73500001
0.0045382013 0.043854851 -0.73300004
0.0057029305 0.043735191 -0.73100001
0.0068518077 0.043555703 -0.72800004
0.0079910234 0.043376215 -0.72500002
0.009120577 0.04319673 -0.72200006
0.010240468 0.043017242 -0.71900004
0.011366551 0.042897582 -0.71700001
0.012503657 0.042837754 -0.71600002
0.013637541 0.042777922 -0.71500003
0.014768206 0.042718094 -0.71400005
0.015940238 0.042777922 -0.71500003
0.017067682 0.042718094 -0.71400005
0.018242933 0.042777922 -0.71500003
0.01939428 0.042777922 -0.71500003
0.02054563 0.042777922 -0.71500003
0.021696975 0.042777922 -0.71500003
0.022848325 0.042777922 -0.71500003
0.023999671 0.042777922 -0.71500003
0.02515102 0.042777922 -0.71500003
0.026302367 0.042777922 -0.71500003
0.027376924 0.042658266 -0.71300006
0.028485043 0.042598434 -0.71200001
0.029548325 0.042478777 -0.71000004
0.030605165 0.042359117 -0.708
0.031655565 0.042239461 -0.70600003
0.032745972 0.042179633 -0.70500004
0.033785101 0.042059973 -0.70300001
0.034817789 0.041940313 -0.70100003
0.035895314 0.041880485 -0.70000005
0.036969621 0.041820657 -0.69900006
0.038040701 0.041760825 -0.69800001
0.039164674 0.041760825 -0.69800001
0.040288649 0.041760825 -0.69800001
0.041353289 0.041700996 -0.69700003
0.042414714 0.041641168 -0.69600004
0.043535467 0.041641168 -0.69600004
0.044656221 0.041641168 -0.69600004
0.045776971 0.041641168 -0.69600004
0.046830345 0.04158134 -0.69500005
0.047880493 0.041521508 -0.69400001
0.048856817 0.041401852 -0.69200003
0.049898919 0.041342024 -0.69100004
0.050863974 0.04122236 -0.68900001
0.051898018 0.041162532 -0.68800002
0.05292885 0.041102704 -0.68700004
0.053956456 0.041042875 -0.68600005
0.055061106 0.041042875 -0.68600005
0.056165755 0.041042875 -0.68600005
0.057437375 0.041162532 -0.68800002
0.058630336 0.04122236 -0.68900001
0.059913229 0.041342024 -0.69100004
0.061114248 0.041401852 -0.69200003
0.062228557 0.041401852 -0.69200003
0.063342869 0.041401852 -0.69200003
0.064457186 0.041401852 -0.69200003
0.065571487 0.041401852 -0.69200003
0.066782169 0.04146168 -0.69300002
0.06799607 0.041521508 -0.69400001
0.069113597 0.041521508 -0.69400001
0.070332333 0.04158134 -0.69500005
0.071451478 0.04158134 -0.69500005
0.072570622 0.04158134 -0.69500005
0.073689759 0.04158134 -0.69500005
0.074808903 0.04158134 -0.69500005
0.075818792 0.041521508 -0.69400001
0.076936319 0.041521508 -0.69400001
0.078053854 0.041521508 -0.69400001
0.079057314 0.04146168 -0.69300002
0.080057539 0.041401852 -0.69200003
0.081054553 0.041342024 -0.69100004
0.082048349 0.041282192 -0.69000006
0.083159439 0.041282192 -0.69000006
0.084148392 0.04122236 -0.68900001
0.085257873 0.04122236 -0.68900001
0.086367354 0.04122236 -0.68900001
0.087349877 0.041162532 -0.68800002
0.088457748 0.041162532 -0.68800002
0.08956562 0.041162532 -0.68800002
0.090673491 0.041162532 -0.68800002
0.091781348 0.041162532 -0.68800002
0.093024231 0.04122236 -0.68900001
0.09413372 0.04122236 -0.68900001
0.095243201 0.04122236 -0.68900001
0.096352682 0.04122236 -0.68900001
0.097603627 0.041282192 -0.69000006
0.098714709 0.041282192 -0.69000006
0.099681117 0.04122236 -0.68900001
0.1007906 0.04122236 -0.68900001
0.10190009 0.04122236 -0.68900001
0.10300957 0.04122236 -0.68900001
0.10381682 0.041102704 -0.68700004
0.10492307 0.041102704 -0.68700004
0.105875 0.041042875 -0.68600005
0.10682371 0.040983047 -0.68500006
0.10761163 0.040863387 -0.68300003
0.10855228 0.040803559 -0.68200004
0.10948972 0.040743731 -0.68100005
0.11042391 0.040683899 -0.68000001
0.1113549 0.040624071 -0.67900002
0.11228268 0.040564243 -0.67800003
0.11337445 0.040564243 -0.67800003
0.11429739 0.040504411 -0.67700005
0.11538754 0.040504411 -0.67700005
0.1164777 0.040504411 -0.67700005
0.11774151 0.040564243 -0.67800003
0.11883328 0.040564243 -0.67800003
0.12010193 0.040624071 -0.67900002
0.12137379 0.040683899 -0.68000001
0.12246878 0.040683899 -0.68000001
0.12392721 0.040803559 -0.68200004
0.12520872 0.040863387 -0.68300003
0.12667842 0.040983047 -0.68500006
0.127968 0.041042875 -0.68600005
0.12944895 0.041162532 -0.68800002
0.13112612 0.041342024 -0.69100004
0.13602096 0.041820657 -0.69900006
0.13753895 0.041940313 -0.70100003
0.13886558 0.042000141 -0.70200002
0.14019541 0.042059973 -0.70300001
0.14152847 0.042119805 -0.70400006
0.14245945 0.042059973 -0.70300001
0.14359148 0.042059973 -0.70300001
0.1447235 0.042059973 -0.70300001
0.14564806 0.042000141 -0.70200002
0.14656939 0.041940313 -0.70100003
0.14748751 0.041880485 -0.70000005
0.14840238 0.041820657 -0.69900006
0.14910012 0.041700996 -0.69700003
0.1502225 0.041700996 -0.69700003
0.15112773 0.041641168 -0.69600004
0.15224847 0.041641168 -0.69600004
0.15336923 0.041641168 -0.69600004
0.15448998 0.041641168 -0.69600004
0.15538715 0.04158134 -0.69500005
0.1565063 0.04158134 -0.69500005
0.15762544 0.04158134 -0.69500005
0.15851617 0.041521508 -0.69400001
0.1596337 0.041521508 -0.69400001
0.1605196 0.04146168 -0.69300002
0.16140229 0.041401852 -0.69200003
0.16251659 0.041401852 -0.69200003
0.1636309 0.041401852 -0.69200003
0.16450715 0.041342024 -0.69100004
0.16561985 0.041342024 -0.69100004
0.16649127 0.041282192 -0.69000006
0.16760235 0.041282192 -0.69000006
0.16846892 0.04122236 -0.68900001
0.1695784 0.04122236 -0.68900001
0.17068788 0.04122236 -0.68900001
0.17154802 0.041162532 -0.68800002
0.17265588 0.041162532 -0.68800002
0.17351119 0.041102704 -0.68700004
0.17436329 0.041042875 -0.68600005
0.17546794 0.041042875 -0.68600005
0.1763152 0.040983047 -0.68500006
0.17741825 0.040983047 -0.68500006
0.17826065 0.040923215 -0.68400002
0.17936209 0.040923215 -0.68400002
0.18046352 0.040923215 -0.68400002
0.18129951 0.040863387 -0.68300003
0.1823993 0.040863387 -0.68300003
0.18323046 0.040803559 -0.68200004
0.18432868 0.040803559 -0.68200004
0.18542689 0.040803559 -0.68200004
0.1859781 0.040683899 -0.68000001
0.18707308 0.040683899 -0.68000001
0.18789136 0.040624071 -0.67900002
0.18898474 0.040624071 -0.67900002
0.18979818 0.040564243 -0.67800003
0.1911715 0.040624071 -0.67900002
0.19226488 0.040624071 -0.67900002
0.19335826 0.040624071 -0.67900002
-0.096249573 0.051058054 -0.87700003
-0.094729222 0.050999835 -0.87600005
-0.093318619 0.050999835 -0.87600005
-0.091803104 0.050941616 -0.87500006
-0.090394109 0.050941616 -0.87500006
-0.088680021 0.050766956 -0.87200004
-0.087275855 0.050766956 -0.87200004
-0.085576266 0.0505923 -0.86900002
-0.083983205 0.050475862 -0.86700004
-0.082491837 0.050417647 -0.86600006
-0.080910049 0.050301205 -0.86400002
-0.079334699 0.050184768 -0.86200005
-0.077765785 0.05006833 -0.86000001
-0.076203324 0.049951892 -0.85800004
-0.074647292 0.049835455 -0.85600007
-0.073097706 0.049719017 -0.85400003
-0.071638547 0.049660798 -0.85300004
-0.070100233 0.049544357 -0.85100001
-0.068568356 0.049427923 -0.84900004
-0.067042932 0.049311485 -0.84700006
-0.065523937 0.049195044 -0.84500003
-0.064087316 0.049136825 -0.84400004
-0.062579609 0.049020391 -0.84200007
-0.061151035 0.048962168 -0.84100002
-0.05965459 0.048845731 -0.83900005
-0.058234081 0.048787512 -0.83800006
-0.056816779 0.048729293 -0.83700001
-0.055402707 0.048671074 -0.83600003
-0.054056522 0.048671074 -0.83600003
-0.052710325 0.048671074 -0.83600003
-0.051364131 0.048671074 -0.83600003
-0.050017942 0.048671074 -0.83600003
-0.048671752 0.048671074 -0.83600003
-0.047325559 0.048671074 -0.83600003
-0.045979369 0.048671074 -0.83600003
-0.044579789 0.048612855 -0.83500004
-0.043183431 0.048554637 -0.83400005
-0.041790292 0.048496418 -0.83300006
-0.040400371 0.048438199 -0.83200002
-0.039013673 0.04837998 -0.83100003
-0.03758486 0.048263542 -0.82900006
-0.036206216 0.048205324 -0.82800007
-0.034872904 0.048205324 -0.82800007
-0.033499088 0.048147101 -0.82700002
-0.03216739 0.048147101 -0.82700002
-0.030835688 0.048147101 -0.82700002
-0.02950399 0.048147101 -0.82700002
-0.02817229 0.048147101 -0.82700002
-0.026808137 0.048088886 -0.82600003
-0.025508892 0.048147101 -0.82700002
-0.024177194 0.048147101 -0.82700002
-0.010983035 0.043373149 -0.74500006
-0.0097833779 0.043373149 -0.74500006
-0.0085721994 0.043314926 -0.74400002
-0.0073741539 0.043314926 -0.74400002
-0.0061678067 0.043256707 -0.74300003
-0.004971371 0.043256707 -0.74300003
-0.003769855 0.043198489 -0.74200004
-0.002571559 0.043140274 -0.74100006
-0.0013764839 0.043082051 -0.74000001
-0.0001848791 0.043082051 -0.74000001
0.0010040049 0.042965613 -0.73800004
0.0021894183 0.042907394 -0.73700005
0.0033716112 0.042849176 -0.73600006
0.0045443922 0.042732738 -0.73400003
0.0057107327 0.0426163 -0.73200005
0.0068612192 0.042441644 -0.72900003
0.0080020446 0.042266984 -0.72600001
0.0091332085 0.042092331 -0.72300005
0.011398258 0.041859452 -0.71900004
0.012538584 0.041801237 -0.71800005
0.013675687 0.041743014 -0.71700001
0.014830256 0.041743014 -0.71700001
0.015984824 0.041743014 -0.71700001
0.017139394 0.041743014 -0.71700001
0.018293962 0.041743014 -0.71700001
0.019475656 0.041801237 -0.71800005
0.020603098 0.041743014 -0.71700001
0.021757666 0.041743014 -0.71700001
0.022944191 0.041801237 -0.71800005
0.024100369 0.041801237 -0.71800005
0.025221372 0.041743014 -0.71700001
0.02637594 0.041743014 -0.71700001
0.027492113 0.041684795 -0.71600002
0.028605064 0.041626576 -0.71500003
0.029673178 0.041510139 -0.71300006
0.030691622 0.041335482 -0.71000004
0.03174524 0.041219041 -0.708
0.032745972 0.041044388 -0.70500004
0.033833161 0.040986169 -0.70400006
0.034817789 0.040811513 -0.70100003
0.035895314 0.040753294 -0.70000005
0.036969621 0.040695075 -0.69900006
0.038040701 0.040636852 -0.69800001
0.039108563 0.040578634 -0.69700003
0.04017321 0.040520415 -0.69600004
0.04129396 0.040520415 -0.69600004
0.042414714 0.040520415 -0.69600004
0.043472916 0.0404622 -0.69500005
0.04459206 0.0404622 -0.69500005
0.045711201 0.0404622 -0.69500005
0.046762958 0.040403977 -0.69400001
0.047811501 0.040345758 -0.69300002
0.048786215 0.040229321 -0.69100004
0.049754493 0.040112883 -0.68900001
0.050716329 0.039996445 -0.68700004
0.051747154 0.039938226 -0.68600005
0.052774765 0.039880008 -0.68500006
0.053877804 0.039880008 -0.68500006
0.054900572 0.039821789 -0.68400002
0.056002006 0.039821789 -0.68400002
0.057270408 0.039938226 -0.68600005
0.058460146 0.039996445 -0.68700004
0.059826527 0.040171102 -0.69000006
0.060937621 0.040171102 -0.69000006
0.062138632 0.040229321 -0.69100004
0.063251331 0.040229321 -0.69100004
0.064364038 0.040229321 -0.69100004
0.065571487 0.040287539 -0.69200003
0.066782169 0.040345758 -0.69300002
0.067898095 0.040345758 -0.69300002
0.069113597 0.040403977 -0.69400001
0.070332333 0.0404622 -0.69500005
0.071451478 0.0404622 -0.69500005
0.072570622 0.0404622 -0.69500005
0.073689759 0.0404622 -0.69500005
0.074808903 0.0404622 -0.69500005
0.075928047 0.0404622 -0.69500005
0.076936319 0.040403977 -0.69400001
0.078053854 0.040403977 -0.69400001
0.079171389 0.040403977 -0.69400001
0.080173232 0.040345758 -0.69300002
0.081171855 0.040287539 -0.69200003
0.08216726 0.040229321 -0.69100004
0.083279952 0.040229321 -0.69100004
0.084270529 0.040171102 -0.69000006
0.08538162 0.040171102 -0.69000006
0.086367354 0.040112883 -0.68900001
0.087476835 0.040112883 -0.68900001
0.088457748 0.040054664 -0.68800002
0.08956562 0.040054664 -0.68800002
0.090673491 0.040054664 -0.68800002
0.091914751 0.040112883 -0.68900001
0.093024231 0.040112883 -0.68900001
0.09413372 0.040112883 -0.68900001
0.095243201 0.040112883 -0.68900001
0.096352682 0.040112883 -0.68900001
0.097603627 0.040171102 -0.69000006
0.098714709 0.040171102 -0.69000006
0.099681117 0.040112883 -0.68900001
0.1007906 0.040112883 -0.68900001
0.10190009 0.040112883 -0.68900001
0.10300957 0.040112883 -0.68900001
0.10396793 0.040054664 -0.68800002
0.10492307 0.039996445 -0.68700004
0.105875 0.039938226 -0.68600005
0.10682371 0.039880008 -0.68500006
0.10776918 0.039821789 -0.68400002
0.10871144 0.03976357 -0.68300003
0.10965049 0.039705351 -0.68200004
0.11042391 0.03958891 -0.68000001
0.1115189 0.03958891 -0.68000001
0.11244828 0.039530691 -0.67900002
0.11337445 0.039472476 -0.67800003
0.11446621 0.039472476 -0.67800003
0.11555798 0.039472476 -0.67800003
0.11664975 0.039472476 -0.67800003
0.11774151 0.039472476 -0.67800003
0.11900855 0.039530691 -0.67900002
0.12010193 0.039530691 -0.67900002
0.12137379 0.03958891 -0.68000001
0.122829 0.039705351 -0.68200004
0.12410892 0.03976357 -0.68300003
0.12539205 0.039821789 -0.68400002
0.12667842 0.039880008 -0.68500006
0.12815453 0.039996445 -0.68700004
0.12963709 0.040112883 -0.68900001
0.13262156 0.040345758 -0.69300002
0.13431643 0.040520415 -0.69600004
0.13602096 0.040695075 -0.69900006
0.13734275 0.040753294 -0.70000005
0.13886558 0.040869728 -0.70200002
0.14019541 0.040927947 -0.70300001
0.14132744 0.040927947 -0.70300001
0.14266211 0.040986169 -0.70400006
0.14359148 0.040927947 -0.70300001
0.1447235 0.040927947 -0.70300001
0.14585553 0.040927947 -0.70300001
0.14677846 0.040869728 -0.70200002
0.14769819 0.040811513 -0.70100003
0.14861469 0.040753294 -0.70000005
0.14952797 0.040695075 -0.69900006
0.15043801 0.040636852 -0.69800001
0.15134485 0.040578634 -0.69700003
0.15224847 0.040520415 -0.69600004
0.15336923 0.040520415 -0.69600004
0.15426801 0.0404622 -0.69500005
0.15538715 0.0404622 -0.69500005
0.1562811 0.040403977 -0.69400001
0.15739863 0.040403977 -0.69400001
0.15851617 0.040403977 -0.69400001
0.15940368 0.040345758 -0.69300002
0.16028798 0.040287539 -0.69200003
0.16140229 0.040287539 -0.69200003
0.16251659 0.040287539 -0.69200003
0.16339445 0.040229321 -0.69100004
0.16450715 0.040229321 -0.69100004
0.16538018 0.040171102 -0.69000006
0.16649127 0.040171102 -0.69000006
0.16735944 0.040112883 -0.68900001
0.16846892 0.040112883 -0.68900001
0.1695784 0.040112883 -0.68900001
0.17068788 0.040112883 -0.68900001
0.17154802 0.040054664 -0.68800002
0.17265588 0.040054664 -0.68800002
0.17351119 0.039996445 -0.68700004
0.17461745 0.039996445 -0.68700004
0.17546794 0.039938226 -0.68600005
0.17657259 0.039938226 -0.68600005
0.17741825 0.039880008 -0.68500006
0.17852129 0.039880008 -0.68500006
0.17962432 0.039880008 -0.68500006
0.18072736 0.039880008 -0.68500006
0.18183041 0.039880008 -0.68500006
0.18266636 0.039821789 -0.68400002
0.1837678 0.039821789 -0.68400002
0.18459895 0.03976357 -0.68300003
0.18569878 0.03976357 -0.68300003
0.18652509 0.039705351 -0.68200004
0.1873482 0.039647132 -0.68100005
0.18816808 0.03958891 -0.68000001
0.19007812 0.039530691 -0.67900002
0.1911715 0.039530691 -0.67900002
0.19198172 0.039472476 -0.67800003
-0.09635932 0.049702451 -0.87800002
-0.09483736 0.049645841 -0.87700003
-0.093425147 0.049645841 -0.87700003
-0.092012934 0.049645841 -0.87700003
-0.090394109 0.049532626 -0.87500006
-0.088781714 0.049419407 -0.87300003
-0.087275855 0.049362797 -0.87200004
-0.085674748 0.049249582 -0.87000006
-0.08408007 0.049136363 -0.86800003
-0.082491837 0.049023148 -0.86600006
-0.080910049 0.048909929 -0.86400002
-0.079242662 0.048740104 -0.86100006
-0.077765785 0.048683491 -0.86000001
-0.076203324 0.048570275 -0.85800004
-0.074647292 0.04845706 -0.85600007
-0.073183298 0.048400447 -0.85500002
-0.071638547 0.048287231 -0.85300004
-0.070100233 0.048174012 -0.85100001
-0.068568356 0.048060797 -0.84900004
-0.067042932 0.047947582 -0.84700006
-0.065601476 0.047890969 -0.84600002
-0.064163253 0.047834363 -0.84500003
-0.062728249 0.047777753 -0.84400004
-0.061223749 0.047664538 -0.84200007
-0.059725691 0.047551319 -0.84000003
-0.058303569 0.047494709 -0.83900005
-0.056884665 0.047438104 -0.83800006
-0.055468976 0.04738149 -0.83700001
-0.054121181 0.04738149 -0.83700001
-0.052710325 0.047324885 -0.83600003
-0.051364131 0.047324885 -0.83600003
-0.050077774 0.04738149 -0.83700001
-0.048671752 0.047324885 -0.83600003
-0.047325559 0.047324885 -0.83600003
-0.045979369 0.047324885 -0.83600003
-0.044579789 0.047268275 -0.83500004
-0.043183431 0.047211666 -0.83400005
-0.041790292 0.04715506 -0.83300006
-0.040400371 0.047098447 -0.83200002
-0.039013673 0.047041841 -0.83100003
-0.03758486 0.046928626 -0.82900006
-0.036206216 0.046872016 -0.82800007
-0.034830783 0.046815407 -0.82700002
-0.033458579 0.046758797 -0.82600003
-0.032128494 0.046758797 -0.82600003
-0.030798402 0.046758797 -0.82600003
-0.029468315 0.046758797 -0.82600003
-0.028138224 0.046758797 -0.82600003
-0.026808137 0.046758797 -0.82600003
-0.025478048 0.046758797 -0.82600003
-0.024147959 0.046758797 -0.82600003
-0.011012519 0.042286709 -0.74700004
-0.0098096421 0.042286709 -0.74700004
-0.0085952431 0.042230099 -0.74600005
-0.007384066 0.042173494 -0.74500006
-0.0061761076 0.04211688 -0.74400002
-0.0049780617 0.04211688 -0.74400002
-0.0037749356 0.042060275 -0.74300003
-0.0025750294 0.042003665 -0.74200004
-0.0013783441 0.041947059 -0.74100006
-0.0001848791 0.041890446 -0.74000001
0.0010040049 0.041777231 -0.73800004
0.0021894183 0.041720621 -0.73700005
0.0033716112 0.041664016 -0.73600006
0.0045443922 0.041550796 -0.73400003
0.0057107327 0.041437577 -0.73200005
0.0068706311 0.041324358 -0.73000002
0.0080130678 0.041154537 -0.72700006
0.0091584735 0.041041315 -0.72500002
0.010283197 0.040871494 -0.72200006
0.011429963 0.04081488 -0.72100002
0.012573509 0.040758274 -0.72000003
0.013713835 0.040701665 -0.71900004
0.014871624 0.040701665 -0.71900004
0.016029414 0.040701665 -0.71900004
0.017187202 0.040701665 -0.71900004
0.018370505 0.040758274 -0.72000003
0.019502779 0.040701665 -0.71900004
0.02066057 0.040701665 -0.71900004
0.021818358 0.040701665 -0.71900004
0.022976147 0.040701665 -0.71900004
0.024133936 0.040701665 -0.71900004
0.025291726 0.040701665 -0.71900004
0.026449515 0.040701665 -0.71900004
0.027568908 0.040645055 -0.71800005
0.02864507 0.040531836 -0.71600002
0.029714795 0.040418621 -0.71400005
0.03073485 0.040248796 -0.71100003
0.031790081 0.040135577 -0.70900005
0.032792419 0.039965753 -0.70600003
0.033785101 0.039795924 -0.70300001
0.034768119 0.039626099 -0.70000005
0.035844035 0.039569493 -0.69900006
0.036863841 0.039456274 -0.69700003
0.037931703 0.039399665 -0.69600004
0.039052457 0.039399665 -0.69600004
0.04017321 0.039399665 -0.69600004
0.041234631 0.039343055 -0.69500005
0.04229283 0.039286446 -0.69400001
0.043410365 0.039286446 -0.69400001
0.044527896 0.039286446 -0.69400001
0.045579653 0.039229836 -0.69300002
0.046628196 0.039173231 -0.69200003
0.047742508 0.039173231 -0.69200003
0.048715614 0.039060015 -0.69000006
0.049682282 0.038946792 -0.68800002
0.050642509 0.038833577 -0.68600005
0.051671721 0.038776971 -0.68500006
0.052620675 0.038663752 -0.68300003
0.053720497 0.038663752 -0.68300003
0.054740049 0.038607143 -0.68200004
0.055920132 0.038663752 -0.68300003
0.057019953 0.038663752 -0.68300003
0.05828996 0.038776971 -0.68500006
0.059566408 0.038890187 -0.68700004
0.060760986 0.038946792 -0.68800002
0.061958775 0.039003402 -0.68900001
0.063068256 0.039003402 -0.68900001
0.064270891 0.039060015 -0.69000006
0.065476738 0.039116621 -0.69100004
0.066685803 0.039173231 -0.69200003
0.067898095 0.039229836 -0.69300002
0.069113597 0.039286446 -0.69400001
0.070231132 0.039286446 -0.69400001
0.071451478 0.039343055 -0.69500005
0.072570622 0.039343055 -0.69500005
0.073689759 0.039343055 -0.69500005
0.074808903 0.039343055 -0.69500005
0.075928047 0.039343055 -0.69500005
0.077047184 0.039343055 -0.69500005
0.078166328 0.039343055 -0.69500005
0.079285473 0.039343055 -0.69500005
0.080288917 0.039286446 -0.69400001
0.081406452 0.039286446 -0.69400001
0.082405075 0.039229836 -0.69300002
0.083400473 0.039173231 -0.69200003
0.084514789 0.039173231 -0.69200003
0.085505359 0.039116621 -0.69100004
0.08649271 0.039060015 -0.69000006
0.0876038 0.039060015 -0.69000006
0.088586316 0.039003402 -0.68900001
0.089695796 0.039003402 -0.68900001
0.090805277 0.039003402 -0.68900001
0.091914751 0.039003402 -0.68900001
0.093024231 0.039003402 -0.68900001
0.09413372 0.039003402 -0.68900001
0.095243201 0.039003402 -0.68900001
0.096352682 0.039003402 -0.68900001
0.097462162 0.039003402 -0.68900001
0.098714709 0.039060015 -0.69000006
0.099681117 0.039003402 -0.68900001
0.1007906 0.039003402 -0.68900001
0.10190009 0.039003402 -0.68900001
0.10300957 0.039003402 -0.68900001
0.10396793 0.038946792 -0.68800002
0.1050758 0.038946792 -0.68800002
0.10602933 0.038890187 -0.68700004
0.10697965 0.038833577 -0.68600005
0.10792675 0.038776971 -0.68500006
0.10871144 0.038663752 -0.68300003
0.10965049 0.038607143 -0.68200004
0.11058631 0.038550533 -0.68100005
0.1115189 0.038493924 -0.68000001
0.11261389 0.038493924 -0.68000001
0.11354166 0.038437314 -0.67900002
0.11446621 0.038380709 -0.67800003
0.11555798 0.038380709 -0.67800003
0.11682179 0.038437314 -0.67900002
0.11791517 0.038437314 -0.67900002
0.11918382 0.038493924 -0.68000001
0.12027881 0.038493924 -0.68000001
0.12173078 0.038607143 -0.68200004
0.12300909 0.038663752 -0.68300003
0.12429062 0.038720358 -0.68400002
0.12557538 0.038776971 -0.68500006
0.12686335 0.038833577 -0.68600005
0.12834108 0.038946792 -0.68800002
0.12963709 0.039003402 -0.68900001
0.13112612 0.039116621 -0.69100004
0.13262156 0.039229836 -0.69300002
0.13431643 0.039399665 -0.69600004
0.13582636 0.03951288 -0.69800001
0.13714655 0.039569493 -0.69900006
0.13866776 0.039682709 -0.70100003
0.13999599 0.039739314 -0.70200002
0.14132744 0.039795924 -0.70300001
0.14266211 0.039852533 -0.70400006
0.14379574 0.039852533 -0.70400006
0.14492938 0.039852533 -0.70400006
0.14585553 0.039795924 -0.70300001
0.14698756 0.039795924 -0.70300001
0.14811958 0.039795924 -0.70300001
0.14882699 0.039682709 -0.70100003
0.14974187 0.039626099 -0.70000005
0.15086907 0.039626099 -0.70000005
0.15156199 0.03951288 -0.69800001
0.15246722 0.039456274 -0.69700003
0.15358958 0.039456274 -0.69700003
0.15448998 0.039399665 -0.69600004
0.15538715 0.039343055 -0.69500005
0.1562811 0.039286446 -0.69400001
0.15739863 0.039286446 -0.69400001
0.15828775 0.039229836 -0.69300002
0.15940368 0.039229836 -0.69300002
0.16028798 0.039173231 -0.69200003
0.16140229 0.039173231 -0.69200003
0.16251659 0.039173231 -0.69200003
0.16339445 0.039116621 -0.69100004
0.16450715 0.039116621 -0.69100004
0.16538018 0.039060015 -0.69000006
0.16649127 0.039060015 -0.69000006
0.16735944 0.039003402 -0.68900001
0.16846892 0.039003402 -0.68900001
0.1695784 0.039003402 -0.68900001
0.17068788 0.039003402 -0.68900001
0.17179736 0.039003402 -0.68900001
0.17265588 0.038946792 -0.68800002
0.17376377 0.038946792 -0.68800002
0.17461745 0.038890187 -0.68700004
0.17572372 0.038890187 -0.68700004
0.17682998 0.038890187 -0.68700004
0.17793624 0.038890187 -0.68700004
0.1790425 0.038890187 -0.68700004
0.18014877 0.038890187 -0.68700004
0.18125503 0.038890187 -0.68700004
0.18209586 0.038833577 -0.68600005
0.18320048 0.038833577 -0.68600005
0.18403648 0.038776971 -0.68500006
0.18513951 0.038776971 -0.68500006
0.18624255 0.038776971 -0.68500006
0.18707208 0.038720358 -0.68400002
0.18789841 0.038663752 -0.68300003
0.19035806 0.038493924 -0.68000001
-0.095053636 0.048343625 -0.87900007
-0.093531668 0.048288625 -0.87800002
-0.092012934 0.048233625 -0.87700003
-0.090497412 0.048178628 -0.87600005
-0.088985115 0.048123632 -0.87500006
-0.087275855 0.047958635 -0.87200004
-0.085674748 0.047848638 -0.87000006
-0.08408007 0.047738642 -0.86800003
-0.082491837 0.047628645 -0.86600006
-0.080910049 0.047518644 -0.86400002
-0.079242662 0.047353651 -0.86100006
-0.077675357 0.047243655 -0.85900003
-0.076114506 0.047133658 -0.85700005
-0.074560083 0.047023661 -0.85500002
-0.073097706 0.046968661 -0.85400003
-0.071554564 0.046858668 -0.85200006
-0.070100233 0.046803664 -0.85100001
-0.068568356 0.046693671 -0.84900004
-0.067042932 0.046583675 -0.84700006
-0.065679029 0.046583675 -0.84700006
-0.064163253 0.046473674 -0.84500003
-0.062728249 0.046418678 -0.84400004
-0.061223749 0.046308681 -0.84200007
-0.059796792 0.046253681 -0.84100002
-0.05837306 0.046198685 -0.84000003
-0.056952547 0.046143688 -0.83900005
-0.055535253 0.046088688 -0.83800006
-0.054121181 0.046033688 -0.83700001
-0.052773375 0.046033688 -0.83700001
-0.051364131 0.045978691 -0.83600003
-0.050017942 0.045978691 -0.83600003
-0.048671752 0.045978691 -0.83600003
-0.047325559 0.045978691 -0.83600003
-0.045924369 0.045923691 -0.83500004
-0.044579789 0.045923691 -0.83500004
-0.043131649 0.045813698 -0.83300006
-0.041790292 0.045813698 -0.83300006
-0.040351816 0.045703698 -0.83100003
-0.039013673 0.045703698 -0.83100003
-0.03758486 0.045593701 -0.82900006
-0.036206216 0.045538705 -0.82800007
-0.034830783 0.045483705 -0.82700002
-0.033458579 0.045428704 -0.82600003
-0.032128494 0.045428704 -0.82600003
-0.030798402 0.045428704 -0.82600003
-0.029468315 0.045428704 -0.82600003
-0.028104158 0.045373708 -0.82500005
-0.026743228 0.045318712 -0.82400006
-0.025447203 0.045373708 -0.82500005
-0.024118725 0.045373708 -0.82500005
-0.0122481 0.041193824 -0.74900001
-0.011027261 0.041138828 -0.74800003
-0.0098227737 0.041138828 -0.74800003
-0.0086067654 0.041083831 -0.74700004
-0.0073939771 0.041028831 -0.74600005
-0.0061927103 0.041028831 -0.74600005
-0.0049847532 0.040973835 -0.74500006
-0.0037800162 0.040918835 -0.74400002
-0.0025750294 0.040808838 -0.74200004
-0.0013802042 0.040808838 -0.74200004
-0.0001848791 0.040698841 -0.74000001
0.0010040049 0.040588845 -0.73800004
0.0021894183 0.040533848 -0.73700005
0.0033716112 0.040478848 -0.73600006
0.0045443922 0.040368851 -0.73400003
0.0057029305 0.040203854 -0.73100001
0.0068612192 0.040093858 -0.72900003
0.0080020446 0.039928861 -0.72600001
0.009145841 0.039818868 -0.72400004
0.010283197 0.039708871 -0.72200006
0.01141411 0.039598871 -0.72000003
0.012573509 0.039598871 -0.72000003
0.013713835 0.039543875 -0.71900004
0.014871624 0.039543875 -0.71900004
0.016029414 0.039543875 -0.71900004
0.017187202 0.039543875 -0.71900004
0.018344991 0.039543875 -0.71900004
0.019502779 0.039543875 -0.71900004
0.02066057 0.039543875 -0.71900004
0.021818358 0.039543875 -0.71900004
0.022976147 0.039543875 -0.71900004
0.024133936 0.039543875 -0.71900004
0.02525655 0.039488878 -0.71800005
0.026412727 0.039488878 -0.71800005
0.02753051 0.039433874 -0.71700001
0.028605064 0.039323881 -0.71500003
0.029673178 0.039213885 -0.71300006
0.031700402 0.038883891 -0.70700002
0.032699525 0.038718898 -0.70400006
0.033688985 0.038553901 -0.70100003
0.034718454 0.038443908 -0.69900006
0.035741474 0.038333908 -0.69700003
0.036810953 0.038278911 -0.69600004
0.037877206 0.038223911 -0.69500005
0.038940232 0.038168911 -0.69400001
0.040057767 0.038168911 -0.69400001
0.041115969 0.038113914 -0.69300002
0.042231888 0.038113914 -0.69300002
0.043347813 0.038113914 -0.69300002
0.044399574 0.038058918 -0.69200003
0.045513883 0.038058918 -0.69200003
0.046628196 0.038058918 -0.69200003
0.04767352 0.038003918 -0.69100004
0.048645008 0.037893921 -0.68900001
0.049610067 0.037783924 -0.68700004
0.050568685 0.037673928 -0.68500006
0.051596288 0.037618928 -0.68400002
0.052620675 0.037563931 -0.68300003
0.053563189 0.037453935 -0.68100005
0.054659784 0.037453935 -0.68100005
0.055756386 0.037453935 -0.68100005
0.056936469 0.037508931 -0.68200004
0.058119766 0.037563931 -0.68300003
0.059393 0.037673928 -0.68500006
0.060584355 0.037728928 -0.68600005
0.061778929 0.037783924 -0.68700004
0.062976725 0.037838921 -0.68800002
0.064084597 0.037838921 -0.68800002
0.065287217 0.037893921 -0.68900001
0.066493072 0.037948921 -0.69000006
0.067702137 0.038003918 -0.69100004
0.068914421 0.038058918 -0.69200003
0.070129931 0.038113914 -0.69300002
0.071245857 0.038113914 -0.69300002
0.072466195 0.038168911 -0.69400001
0.073689759 0.038223911 -0.69500005
0.074808903 0.038223911 -0.69500005
0.075928047 0.038223911 -0.69500005
0.077047184 0.038223911 -0.69500005
0.078166328 0.038223911 -0.69500005
0.079399556 0.038278911 -0.69600004
0.080404617 0.038223911 -0.69500005
0.081406452 0.038168911 -0.69400001
0.082523987 0.038168911 -0.69400001
0.083520994 0.038113914 -0.69300002
0.084636919 0.038113914 -0.69300002
0.085629098 0.038058918 -0.69200003
0.086618058 0.038003918 -0.69100004
0.087730765 0.038003918 -0.69100004
0.088714898 0.037948921 -0.69000006
0.089695796 0.037893921 -0.68900001
0.090937078 0.037948921 -0.69000006
0.091914751 0.037893921 -0.68900001
0.093159258 0.037948921 -0.69000006
0.094270349 0.037948921 -0.69000006
0.095243201 0.037893921 -0.68900001
0.096492536 0.037948921 -0.69000006
0.097603627 0.037948921 -0.69000006
0.098714709 0.037948921 -0.69000006
0.099825799 0.037948921 -0.69000006
0.1007906 0.037893921 -0.68900001
0.10190009 0.037893921 -0.68900001
0.10300957 0.037893921 -0.68900001
0.10396793 0.037838921 -0.68800002
0.1050758 0.037838921 -0.68800002
0.10602933 0.037783924 -0.68700004
0.10697965 0.037728928 -0.68600005
0.10792675 0.037673928 -0.68500006
0.10887061 0.037618928 -0.68400002
0.10981127 0.037563931 -0.68300003
0.11074869 0.037508931 -0.68200004
0.11168291 0.037453935 -0.68100005
0.11261389 0.037398934 -0.68000001
0.11370888 0.037398934 -0.68000001
0.11480387 0.037398934 -0.68000001
0.11589886 0.037398934 -0.68000001
0.11699384 0.037398934 -0.68000001
0.1182625 0.037453935 -0.68100005
0.11953437 0.037508931 -0.68200004
0.12080945 0.037563931 -0.68300003
0.12190928 0.037563931 -0.68300003
0.12336931 0.037673928 -0.68500006
0.12447234 0.037673928 -0.68500006
0.12575869 0.037728928 -0.68600005
0.12704827 0.037783924 -0.68700004
0.12834108 0.037838921 -0.68800002
0.12963709 0.037893921 -0.68900001
0.13093635 0.037948921 -0.69000006
0.13243018 0.038058918 -0.69200003
0.13393046 0.038168911 -0.69400001
0.13543718 0.038278911 -0.69600004
0.13675414 0.038333908 -0.69700003
0.13846995 0.038498905 -0.70000005
0.13979657 0.038553901 -0.70100003
0.14112641 0.038608901 -0.70200002
0.14245945 0.038663898 -0.70300001
0.14359148 0.038663898 -0.70300001
0.1447235 0.038663898 -0.70300001
0.14585553 0.038663898 -0.70300001
0.14698756 0.038663898 -0.70300001
0.14811958 0.038663898 -0.70300001
0.1490393 0.038608901 -0.70200002
0.14995579 0.038553901 -0.70100003
0.15086907 0.038498905 -0.70000005
0.15177913 0.038443908 -0.69900006
0.15268597 0.038388904 -0.69800001
0.15380993 0.038388904 -0.69800001
0.15471193 0.038333908 -0.69700003
0.15561073 0.038278911 -0.69600004
0.1565063 0.038223911 -0.69500005
0.15739863 0.038168911 -0.69400001
0.15828775 0.038113914 -0.69300002
0.15940368 0.038113914 -0.69300002
0.16028798 0.038058918 -0.69200003
0.16140229 0.038058918 -0.69200003
0.16228175 0.038003918 -0.69100004
0.16339445 0.038003918 -0.69100004
0.16450715 0.038003918 -0.69100004
0.16538018 0.037948921 -0.69000006
0.16649127 0.037948921 -0.69000006
0.16760235 0.037948921 -0.69000006
0.16846892 0.037893921 -0.68900001
0.1695784 0.037893921 -0.68900001
0.17068788 0.037893921 -0.68900001
0.17179736 0.037893921 -0.68900001
0.17290683 0.037893921 -0.68900001
0.17376377 0.037838921 -0.68800002
0.17487164 0.037838921 -0.68800002
0.17597951 0.037838921 -0.68800002
0.17708738 0.037838921 -0.68800002
0.17819525 0.037838921 -0.68800002
0.17930312 0.037838921 -0.68800002
0.180411 0.037838921 -0.68800002
0.18178269 0.037893921 -0.68900001
0.18262674 0.037838921 -0.68800002
0.18346754 0.037783924 -0.68700004
0.1845738 0.037783924 -0.68700004
0.18568006 0.037783924 -0.68700004
0.18651444 0.037728928 -0.68600005
-0.092222773 0.046928193 -0.87900007
-0.090600722 0.046821415 -0.87700003
-0.088985115 0.046714641 -0.87500006
-0.087375939 0.046607863 -0.87300003
-0.085674748 0.046447698 -0.87000006
-0.08408007 0.04634092 -0.86800003
-0.082491837 0.046234146 -0.86600006
-0.080910049 0.046127368 -0.86400002
-0.079242662 0.045967206 -0.86100006
-0.077675357 0.045860428 -0.85900003
-0.076114506 0.045753654 -0.85700005
-0.074560083 0.045646876 -0.85500002
-0.073012114 0.045540098 -0.85300004
-0.071470574 0.04543332 -0.85100001
-0.070100233 0.04543332 -0.85100001
-0.068568356 0.045326546 -0.84900004
-0.067042932 0.045219772 -0.84700006
-0.065601476 0.045166381 -0.84600002
-0.064163253 0.045112994 -0.84500003
-0.062728249 0.045059606 -0.84400004
-0.061296463 0.045006219 -0.84300005
-0.059796792 0.044899441 -0.84100002
-0.05837306 0.044846054 -0.84000003
-0.056952547 0.044792667 -0.83900005
-0.055535253 0.044739276 -0.83800006
-0.054121181 0.044685889 -0.83700001
-0.052710325 0.044632498 -0.83600003
-0.051364131 0.044632498 -0.83600003
-0.049958114 0.044579111 -0.83500004
-0.048613533 0.044579111 -0.83500004
-0.047268949 0.044579111 -0.83500004
-0.045869373 0.044525724 -0.83400005
-0.044526402 0.044525724 -0.83400005
-0.043131649 0.044472337 -0.83300006
-0.041740119 0.044418946 -0.83200002
-0.040351816 0.044365559 -0.83100003
-0.038966727 0.044312172 -0.83000004
-0.03758486 0.044258785 -0.82900006
-0.036206216 0.044205397 -0.82800007
-0.034830783 0.044152007 -0.82700002
-0.033458579 0.044098619 -0.82600003
-0.032089598 0.044045232 -0.82500005
-0.030761117 0.044045232 -0.82500005
-0.029432639 0.044045232 -0.82500005
-0.028070094 0.043991845 -0.82400006
-0.026743228 0.043991845 -0.82400006
-0.025416357 0.043991845 -0.82400006
-0.024060255 0.043938454 -0.82300001
-0.022762623 0.043991845 -0.82400006
-0.012280806 0.040094506 -0.75100005
-0.011056746 0.040041119 -0.75000006
-0.0098359054 0.039987728 -0.74900001
-0.0086182868 0.039934341 -0.74800003
-0.0074137999 0.039934341 -0.74800003
-0.0062010116 0.039880954 -0.74700004
-0.0049914438 0.039827567 -0.74600005
-0.003785097 0.039774179 -0.74500006
-0.0025784997 0.039667401 -0.74300003
-0.0013802042 0.039614014 -0.74200004
-0.00018512896 0.039560627 -0.74100006
0.0010040049 0.039400462 -0.73800004
0.0021894183 0.039347075 -0.73700005
0.0033670301 0.039240297 -0.73500001
0.0045382013 0.039133519 -0.73300004
0.0056951293 0.038973354 -0.73000002
0.0068423958 0.038813192 -0.72700006
0.0079910234 0.038706414 -0.72500002
0.009120577 0.038546253 -0.72200006
0.010254711 0.038439475 -0.72000003
0.011382405 0.038332701 -0.71800005
0.012538584 0.038332701 -0.71800005
0.013675687 0.03827931 -0.71700001
0.014850941 0.038332701 -0.71800005
0.01600712 0.038332701 -0.71800005
0.017163299 0.038332701 -0.71800005
0.018319476 0.038332701 -0.71800005
0.019502779 0.038386088 -0.71900004
0.020631835 0.038332701 -0.71800005
0.021788012 0.038332701 -0.71800005
0.022944191 0.038332701 -0.71800005
0.024100369 0.038332701 -0.71800005
0.025221372 0.03827931 -0.71700001
0.02637594 0.03827931 -0.71700001
0.027492113 0.038225919 -0.71600002
0.028565058 0.038119145 -0.71400005
0.029589942 0.03795898 -0.71100003
0.030648395 0.037852205 -0.70900005
0.033688985 0.037425101 -0.70100003
0.034668781 0.037264932 -0.69800001
0.035690196 0.037158158 -0.69600004
0.036758061 0.037104771 -0.69500005
0.037822701 0.03705138 -0.69400001
0.038940232 0.03705138 -0.69400001
0.040000048 0.036997993 -0.69300002
0.041115969 0.036997993 -0.69300002
0.042170949 0.036944605 -0.69200003
0.043285262 0.036944605 -0.69200003
0.044399574 0.036944605 -0.69200003
0.045513883 0.036944605 -0.69200003
0.046628196 0.036944605 -0.69200003
0.047742508 0.036944605 -0.69200003
0.048715614 0.036837831 -0.69000006
0.049610067 0.036677666 -0.68700004
0.050568685 0.036570892 -0.68500006
0.051596288 0.036517501 -0.68400002
0.052620675 0.036464114 -0.68300003
0.053563189 0.036357336 -0.68100005
0.058119766 0.036464114 -0.68300003
0.059306294 0.036517501 -0.68400002
0.060496043 0.036570892 -0.68500006
0.061689004 0.036624279 -0.68600005
0.070028737 0.036944605 -0.69200003
0.071245857 0.036997993 -0.69300002
0.072361782 0.036997993 -0.69300002
0.07358373 0.03705138 -0.69400001
0.074808903 0.037104771 -0.69500005
0.075928047 0.037104771 -0.69500005
0.077158041 0.037158158 -0.69600004
0.078278795 0.037158158 -0.69600004
0.079399556 0.037158158 -0.69600004
0.080520302 0.037158158 -0.69600004
0.081641056 0.037158158 -0.69600004
0.082761809 0.037158158 -0.69600004
0.083762042 0.037104771 -0.69500005
0.084881186 0.037104771 -0.69500005
0.085876584 0.03705138 -0.69400001
0.086868763 0.036997993 -0.69300002
0.087857723 0.036944605 -0.69200003
0.088972032 0.036944605 -0.69200003
0.089956164 0.036891218 -0.69100004
0.091068871 0.036891218 -0.69100004
0.092181563 0.036891218 -0.69100004
0.093159258 0.036837831 -0.69000006
0.09440697 0.036891218 -0.69100004
0.095381439 0.036837831 -0.69000006
0.096492536 0.036837831 -0.69000006
0.097603627 0.036837831 -0.69000006
0.098714709 0.036837831 -0.69000006
0.099825799 0.036837831 -0.69000006
0.10093689 0.036837831 -0.69000006
0.10190009 0.03678444 -0.68900001
0.10300957 0.03678444 -0.68900001
0.10411905 0.03678444 -0.68900001
0.1050758 0.036731053 -0.68800002
0.10602933 0.036677666 -0.68700004
0.10713559 0.036677666 -0.68700004
0.1080843 0.036624279 -0.68600005
0.10902978 0.036570892 -0.68500006
0.10981127 0.036464114 -0.68300003
0.11091108 0.036464114 -0.68300003
0.1118469 0.036410723 -0.68200004
0.11277951 0.036357336 -0.68100005
0.1138761 0.036357336 -0.68100005
0.1149727 0.036357336 -0.68100005
0.11623974 0.036410723 -0.68200004
0.11750999 0.036464114 -0.68300003
0.11860982 0.036464114 -0.68300003
0.1198849 0.036517501 -0.68400002
0.12116322 0.036570892 -0.68500006
0.12226626 0.036570892 -0.68500006
0.1235494 0.036624279 -0.68600005
0.12483576 0.036677666 -0.68700004
0.12594202 0.036677666 -0.68700004
0.12704827 0.036677666 -0.68700004
0.12834108 0.036731053 -0.68800002
0.12963709 0.03678444 -0.68900001
0.13093635 0.036837831 -0.69000006
0.13223882 0.036891218 -0.69100004
0.13373747 0.036997993 -0.69300002
0.13524258 0.037104771 -0.69500005
0.13655794 0.037158158 -0.69600004
0.13807431 0.037264932 -0.69800001
0.13959715 0.03737171 -0.70000005
0.14072433 0.03737171 -0.70000005
0.14205417 0.037425101 -0.70100003
0.14318298 0.037425101 -0.70100003
0.14451765 0.037478488 -0.70200002
0.14564806 0.037478488 -0.70200002
0.14677846 0.037478488 -0.70200002
0.14790888 0.037478488 -0.70200002
0.1490393 0.037478488 -0.70200002
0.14995579 0.037425101 -0.70100003
0.15086907 0.03737171 -0.70000005
0.15199627 0.03737171 -0.70000005
0.15290472 0.037318323 -0.69900006
0.15403031 0.037318323 -0.69900006
0.15471193 0.037211545 -0.69700003
0.15561073 0.037158158 -0.69600004
0.15673149 0.037158158 -0.69600004
0.15762544 0.037104771 -0.69500005
0.15851617 0.03705138 -0.69400001
0.15940368 0.036997993 -0.69300002
0.1605196 0.036997993 -0.69300002
0.16140229 0.036944605 -0.69200003
0.16251659 0.036944605 -0.69200003
0.1636309 0.036944605 -0.69200003
0.16450715 0.036891218 -0.69100004
0.16561985 0.036891218 -0.69100004
0.16649127 0.036837831 -0.69000006
0.16760235 0.036837831 -0.69000006
0.16846892 0.03678444 -0.68900001
0.1695784 0.03678444 -0.68900001
0.17068788 0.03678444 -0.68900001
0.17179736 0.03678444 -0.68900001
0.17290683 0.03678444 -0.68900001
0.17401633 0.03678444 -0.68900001
0.17487164 0.036731053 -0.68800002
0.17623529 0.03678444 -0.68900001
0.17734477 0.03678444 -0.68900001
0.17845425 0.03678444 -0.68900001
0.17956373 0.03678444 -0.68900001
0.18067321 0.03678444 -0.68900001
0.18178269 0.03678444 -0.68900001
0.18289217 0.03678444 -0.68900001
0.18400164 0.03678444 -0.68900001
0.18484245 0.036731053 -0.68800002
0.18595034 0.036731053 -0.68800002
0.18678632 0.036677666 -0.68700004
-0.087375939 0.045202091 -0.87300003
-0.085674748 0.045046758 -0.87000006
-0.08408007 0.044943202 -0.86800003
-0.082491837 0.044839647 -0.86600006
-0.080816403 0.044684313 -0.86300004
-0.079150625 0.04452898 -0.86000001
-0.07749451 0.044373646 -0.85700005
-0.075936876 0.044270091 -0.85500002
-0.07438568 0.044166535 -0.85300004
-0.072926514 0.044114757 -0.85200006
-0.071470574 0.044062976 -0.85100001
-0.069935486 0.043959424 -0.84900004
-0.068487592 0.043907646 -0.84800005
-0.067042932 0.043855868 -0.84700006
-0.065601476 0.043804087 -0.84600002
-0.064163253 0.043752309 -0.84500003
-0.062728249 0.043700535 -0.84400004
-0.061223749 0.043596979 -0.84200007
-0.059796792 0.043545198 -0.84100002
-0.05837306 0.04349342 -0.84000003
-0.056884665 0.043389868 -0.83800006
-0.055535253 0.043389868 -0.83800006
-0.054121181 0.043338086 -0.83700001
-0.052710325 0.043286309 -0.83600003
-0.051302694 0.043234531 -0.83500004
-0.049958114 0.043234531 -0.83500004
-0.048555315 0.043182757 -0.83400005
-0.04721234 0.043182757 -0.83400005
-0.045814373 0.043130979 -0.83300006
-0.044419624 0.043079197 -0.83200002
-0.043028094 0.04302742 -0.83100003
-0.041689955 0.04302742 -0.83100003
-0.040303256 0.042975642 -0.83000004
-0.038919777 0.042923868 -0.82900006
-0.037539523 0.04287209 -0.82800007
-0.036206216 0.04287209 -0.82800007
-0.034830783 0.042820308 -0.82700002
-0.033458579 0.042768531 -0.82600003
-0.032089598 0.042716753 -0.82500005
-0.030723831 0.042664975 -0.82400006
-0.029396964 0.042664975 -0.82400006
-0.028070094 0.042664975 -0.82400006
-0.026710769 0.042613197 -0.82300001
-0.025385512 0.042613197 -0.82300001
-0.024031021 0.042561419 -0.82200003
-0.022707373 0.042561419 -0.82200003
-0.012362569 0.03914408 -0.75600004
-0.01108623 0.038936969 -0.75200003
-0.009849038 0.038833413 -0.75000006
-0.0086413305 0.038833413 -0.75000006
-0.0074237115 0.038781632 -0.74900001
-0.0062093125 0.038729858 -0.74800003
-0.0049981349 0.03867808 -0.74700004
-0.0037901776 0.038626302 -0.74600005
-0.0025819701 0.038522743 -0.74400002
-0.0013820643 0.038470969 -0.74300003
-0.00018512896 0.038367413 -0.74100006
0.0010040049 0.03821208 -0.73800004
0.0021864476 0.038108524 -0.73600006
0.0033670301 0.038056742 -0.73500001
0.0045320098 0.037901413 -0.73200005
0.0056795264 0.037694298 -0.72800004
0.0068329838 0.037590742 -0.72600001
0.007968979 0.037435409 -0.72300005
0.0090953112 0.037280075 -0.72000003
0.010226226 0.03717652 -0.71800005
0.011366551 0.037124742 -0.71700001
0.01252112 0.037124742 -0.71700001
0.013656614 0.037072964 -0.71600002
0.014809572 0.037072964 -0.71600002
0.015962532 0.037072964 -0.71600002
0.017139394 0.037124742 -0.71700001
0.018293962 0.037124742 -0.71700001
0.01944853 0.037124742 -0.71700001
0.020603098 0.037124742 -0.71700001
0.021757666 0.037124742 -0.71700001
0.022880279 0.037072964 -0.71600002
0.024033237 0.037072964 -0.71600002
0.025186196 0.037072964 -0.71600002
0.026339153 0.037072964 -0.71600002
0.02741532 0.036969408 -0.71400005
0.028525051 0.036917631 -0.71300006
0.029548325 0.036762297 -0.71000004
0.030605165 0.036658742 -0.708
0.031610727 0.036503408 -0.70500004
0.035690196 0.036037408 -0.69600004
0.036758061 0.03598563 -0.69500005
0.037822701 0.035933848 -0.69400001
0.038940232 0.035933848 -0.69400001
0.040000048 0.035882071 -0.69300002
0.041115969 0.035882071 -0.69300002
0.042231888 0.035882071 -0.69300002
0.043285262 0.035830297 -0.69200003
0.044399574 0.035830297 -0.69200003
0.045579653 0.035882071 -0.69300002
0.046695579 0.035882071 -0.69300002
0.047742508 0.035830297 -0.69200003
0.048786215 0.035778519 -0.69100004
0.049754493 0.035674959 -0.68900001
0.050716329 0.035571408 -0.68700004
0.052697718 0.03541607 -0.68400002
0.053720497 0.035364293 -0.68300003
0.071245857 0.035882071 -0.69300002
0.072466195 0.035933848 -0.69400001
0.073689759 0.03598563 -0.69500005
0.074916542 0.036037408 -0.69600004
0.076037295 0.036037408 -0.69600004
0.077158041 0.036037408 -0.69600004
0.078391269 0.036089186 -0.69700003
0.079627708 0.03614096 -0.69800001
0.08075168 0.03614096 -0.69800001
0.081875652 0.03614096 -0.69800001
0.08288072 0.036089186 -0.69700003
0.084003076 0.036089186 -0.69700003
0.085003316 0.036037408 -0.69600004
0.08612407 0.036037408 -0.69600004
0.087119468 0.03598563 -0.69500005
0.088111646 0.035933848 -0.69400001
0.089100607 0.035882071 -0.69300002
0.090086348 0.035830297 -0.69200003
0.091200665 0.035830297 -0.69200003
0.092314966 0.035830297 -0.69200003
0.093294263 0.035778519 -0.69100004
0.09440697 0.035778519 -0.69100004
0.095519669 0.035778519 -0.69100004
0.096632376 0.035778519 -0.69100004
0.097745076 0.035778519 -0.69100004
0.098714709 0.035726741 -0.69000006
0.099825799 0.035726741 -0.69000006
0.10093689 0.035726741 -0.69000006
0.10204799 0.035726741 -0.69000006
0.10300957 0.035674959 -0.68900001
0.10411905 0.035674959 -0.68900001
0.10522852 0.035674959 -0.68900001
0.10618367 0.035623182 -0.68800002
0.10729154 0.035623182 -0.68800002
0.1080843 0.03551963 -0.68600005
0.10902978 0.035467852 -0.68500006
0.11013283 0.035467852 -0.68500006
0.11107346 0.03541607 -0.68400002
0.1120109 0.035364293 -0.68300003
0.11311072 0.035364293 -0.68300003
0.11421054 0.035364293 -0.68300003
0.11531036 0.035364293 -0.68300003
0.11658062 0.03541607 -0.68400002
0.1178541 0.035467852 -0.68500006
0.11895714 0.035467852 -0.68500006
0.12006018 0.035467852 -0.68500006
0.1213401 0.03551963 -0.68600005
0.12262324 0.035571408 -0.68700004
0.1237295 0.035571408 -0.68700004
0.12501748 0.035623182 -0.68800002
0.12612534 0.035623182 -0.68800002
0.12723321 0.035623182 -0.68800002
0.12834108 0.035623182 -0.68800002
0.12963709 0.035674959 -0.68900001
0.13093635 0.035726741 -0.69000006
0.13223882 0.035778519 -0.69100004
0.13354449 0.035830297 -0.69200003
0.13485339 0.035882071 -0.69300002
0.13636173 0.03598563 -0.69500005
0.13767868 0.036037408 -0.69600004
0.13919829 0.03614096 -0.69800001
0.1405233 0.036192741 -0.69900006
0.14185153 0.036244519 -0.70000005
0.14297871 0.036244519 -0.70000005
0.14431177 0.036296297 -0.70100003
0.14544058 0.036296297 -0.70100003
0.14677846 0.036348075 -0.70200002
0.14790888 0.036348075 -0.70200002
0.14882699 0.036296297 -0.70100003
0.14974187 0.036244519 -0.70000005
0.15086907 0.036244519 -0.70000005
0.15199627 0.036244519 -0.70000005
0.15290472 0.036192741 -0.69900006
0.15403031 0.036192741 -0.69900006
0.1549339 0.03614096 -0.69800001
0.1558343 0.036089186 -0.69700003
0.15673149 0.036037408 -0.69600004
0.15762544 0.03598563 -0.69500005
