# .PCD v0.7 - Point Cloud Data file format
VERSION 0.7
FIELDS x y z
SIZE 4 4 4
TYPE F F F
COUNT 1 1 1
WIDTH 1359
HEIGHT 1
VIEWPOINT 0 0 0 1 0 0 0
POINTS 1359
DATA ascii
-0.12775303 -0.14069346 -0.58700001
-0.12702383 -0.14093313 -0.588
-0.12629141 -0.14117283 -0.58900005
-0.12555575 -0.14141251 -0.59000003
-0.12460569 -0.14141251 -0.59000003
-0.12386521 -0.14165218 -0.59100002
-0.12312151 -0.14189187 -0.59200001
-0.12237461 -0.14213155 -0.59300005
-0.12162446 -0.14237124 -0.59400004
-0.12107424 -0.14285059 -0.59600002
-0.12031605 -0.14309028 -0.597
-0.11955465 -0.14332996 -0.59800005
-0.11879001 -0.14356965 -0.59900004
-0.11802217 -0.14380932 -0.60000002
-0.11744619 -0.1442887 -0.60200006
-0.11667028 -0.14452837 -0.60300004
-0.11589115 -0.14476806 -0.60400003
-0.11491854 -0.14476806 -0.60400003
-0.11394594 -0.14476806 -0.60400003
-0.11316038 -0.14500773 -0.60500002
-0.11218616 -0.14500773 -0.60500002
-0.11121194 -0.14500773 -0.60500002
-0.11023772 -0.14500773 -0.60500002
-0.1092635 -0.14500773 -0.60500002
-0.10828928 -0.14500773 -0.60500002
-0.10731507 -0.14500773 -0.60500002
-0.10651662 -0.14524741 -0.60600001
-0.10554079 -0.14524741 -0.60600001
-0.10456496 -0.14524741 -0.60600001
-0.10358913 -0.14524741 -0.60600001
-0.10261331 -0.14524741 -0.60600001
-0.1018052 -0.1454871 -0.60700005
-0.10082777 -0.1454871 -0.60700005
-0.099850334 -0.1454871 -0.60700005
-0.099035777 -0.14572679 -0.60800004
-0.098056726 -0.14572679 -0.60800004
-0.097237341 -0.14596647 -0.60900003
-0.096098632 -0.14572679 -0.60800004
-0.095119588 -0.14572679 -0.60800004
-0.094140537 -0.14572679 -0.60800004
-0.088511378 -0.14452837 -0.60300004
-0.087395206 -0.1442887 -0.60200006
-0.086425819 -0.1442887 -0.60200006
-0.085314468 -0.144049 -0.60100001
-0.084487036 -0.1442887 -0.60200006
-0.083517648 -0.1442887 -0.60200006
-0.082548268 -0.1442887 -0.60200006
-0.081578881 -0.1442887 -0.60200006
-0.080743395 -0.14452837 -0.60300004
-0.079772398 -0.14452837 -0.60300004
-0.078801401 -0.14452837 -0.60300004
-0.077830404 -0.14452837 -0.60300004
-0.076859415 -0.14452837 -0.60300004
-0.076014265 -0.14476806 -0.60400003
-0.075041652 -0.14476806 -0.60400003
-0.074069045 -0.14476806 -0.60400003
-0.073096439 -0.14476806 -0.60400003
-0.072123833 -0.14476806 -0.60400003
-0.071033426 -0.14452837 -0.60300004
-0.070062429 -0.14452837 -0.60300004
-0.068976857 -0.1442887 -0.60200006
-0.068007469 -0.1442887 -0.60200006
-0.067038082 -0.1442887 -0.60200006
-0.065958939 -0.144049 -0.60100001
-0.064991161 -0.144049 -0.60100001
-0.064129919 -0.1442887 -0.60200006
-0.063160539 -0.1442887 -0.60200006
-0.062191147 -0.1442887 -0.60200006
-0.061323456 -0.14452837 -0.60300004
-0.060452543 -0.14476806 -0.60400003
-0.059578415 -0.14500773 -0.60500002
-0.058797933 -0.1454871 -0.60700005
-0.057915747 -0.14572679 -0.60800004
-0.057123993 -0.14620614 -0.61000001
-0.056233756 -0.14644583 -0.611
-0.055340305 -0.14668551 -0.61200005
-0.054532446 -0.14716488 -0.61400002
-0.053630937 -0.14740455 -0.61500001
-0.052640617 -0.14740455 -0.61500001
-0.05181827 -0.14788392 -0.61700004
-0.050824728 -0.14788392 -0.61700004
-0.04999271 -0.14836328 -0.61900002
-0.049075104 -0.14860296 -0.62
-0.048076734 -0.14860296 -0.62
-0.047154296 -0.14884266 -0.62100005
-0.04622864 -0.14908233 -0.62200004
-0.045227047 -0.14908233 -0.62200004
-0.044296551 -0.14932202 -0.62300003
-0.043293353 -0.14932202 -0.62300003
-0.041286945 -0.14932202 -0.62300003
-0.040219087 -0.14908233 -0.62200004
-0.039154444 -0.14884266 -0.62100005
-0.038031578 -0.14836328 -0.61900002
-0.036974989 -0.14812361 -0.61800003
-0.035921618 -0.14788392 -0.61700004
-0.021052569 -0.14812361 -0.61800003
-0.020057419 -0.14812361 -0.61800003
-0.019062268 -0.14812361 -0.61800003
-0.018067118 -0.14812361 -0.61800003
-0.017099591 -0.14836328 -0.61900002
-0.016128844 -0.14860296 -0.62
-0.015130472 -0.14860296 -0.62
-0.0141321 -0.14860296 -0.62
-0.013154913 -0.14884266 -0.62100005
-0.012154932 -0.14884266 -0.62100005
-0.011172912 -0.14908233 -0.62200004
-0.010187672 -0.14932202 -0.62300003
-0.0091992123 -0.14956169 -0.62400001
-0.0082075307 -0.14980137 -0.625
-0.0072011082 -0.14980137 -0.625
-0.0062045977 -0.15004107 -0.62600005
-0.0052048652 -0.15028074 -0.62700003
-0.0041952217 -0.15028074 -0.62700003
-0.0031855784 -0.15028074 -0.62700003
-0.0021759346 -0.15028074 -0.62700003
-0.0011662912 -0.15028074 -0.62700003
-0.00015689741 -0.15052043 -0.62800002
0.00085435639 -0.15052043 -0.62800002
0.0018656101 -0.15052043 -0.62800002
0.0028814448 -0.1507601 -0.62900001
0.0038943088 -0.1507601 -0.62900001
0.0049149748 -0.1509998 -0.63000005
0.0059388606 -0.15123947 -0.63100004
0.0069549456 -0.15123947 -0.63100004
0.0079836622 -0.15147915 -0.63200003
0.0090013575 -0.15147915 -0.63200003
0.010034905 -0.15171884 -0.63300002
0.01105421 -0.15171884 -0.63300002
0.012073515 -0.15171884 -0.63300002
0.013092821 -0.15171884 -0.63300002
0.014112126 -0.15171884 -0.63300002
0.015131432 -0.15171884 -0.63300002
0.016150735 -0.15171884 -0.63300002
0.017170042 -0.15171884 -0.63300002
0.018189346 -0.15171884 -0.63300002
0.019208651 -0.15171884 -0.63300002
0.020259911 -0.15195851 -0.634
0.021314394 -0.15219821 -0.63500005
0.022336921 -0.15219821 -0.63500005
0.023396233 -0.15243788 -0.63600004
0.024497163 -0.15291725 -0.63800001
0.025564527 -0.15315694 -0.63900006
0.026676727 -0.15363629 -0.64100003
0.027752142 -0.15387598 -0.64200002
0.02878594 -0.15387598 -0.64200002
0.029866183 -0.15411566 -0.64300001
0.030949654 -0.15435535 -0.64400005
0.031986672 -0.15435535 -0.64400005
0.033074968 -0.15459503 -0.64500004
0.034113597 -0.15459503 -0.64500004
0.035152227 -0.15459503 -0.64500004
0.036190853 -0.15459503 -0.64500004
0.037229482 -0.15459503 -0.64500004
0.038268112 -0.15459503 -0.64500004
0.039306737 -0.15459503 -0.64500004
0.040345367 -0.15459503 -0.64500004
0.041383997 -0.15459503 -0.64500004
0.042422622 -0.15459503 -0.64500004
0.043461252 -0.15459503 -0.64500004
0.044430893 -0.15435535 -0.64400005
0.045467906 -0.15435535 -0.64400005
0.046504926 -0.15435535 -0.64400005
0.04761577 -0.15459503 -0.64500004
0.048654396 -0.15459503 -0.64500004
0.049693026 -0.15459503 -0.64500004
0.050731655 -0.15459503 -0.64500004
0.051770281 -0.15459503 -0.64500004
0.052890781 -0.1548347 -0.64600003
0.053931024 -0.1548347 -0.64600003
0.055056352 -0.15507439 -0.64700001
0.056098204 -0.15507439 -0.64700001
0.057228368 -0.15531406 -0.648
0.058361754 -0.15555376 -0.64900005
0.059498359 -0.15579344 -0.65000004
0.060545042 -0.15579344 -0.65000004
0.061686475 -0.15603311 -0.65100002
0.062831134 -0.1562728 -0.65200001
0.063881032 -0.1562728 -0.65200001
0.065030523 -0.15651248 -0.65300006
0.066183232 -0.15675217 -0.65400004
0.06733916 -0.15699184 -0.65500003
0.068393894 -0.15699184 -0.65500003
0.069554649 -0.15723152 -0.65600002
0.070610993 -0.15723152 -0.65600002
0.071776584 -0.15747121 -0.65700001
0.072945394 -0.15771089 -0.65800005
0.074117422 -0.15795058 -0.65900004
0.075178601 -0.15795058 -0.65900004
0.076239772 -0.15795058 -0.65900004
0.077300943 -0.15795058 -0.65900004
0.078362115 -0.15795058 -0.65900004
0.079423286 -0.15795058 -0.65900004
0.080484457 -0.15795058 -0.65900004
0.081545636 -0.15795058 -0.65900004
0.0826068 -0.15795058 -0.65900004
0.083667979 -0.15795058 -0.65900004
0.08472915 -0.15795058 -0.65900004
0.085920505 -0.15819025 -0.66000003
0.086983293 -0.15819025 -0.66000003
0.088046066 -0.15819025 -0.66000003
0.089108847 -0.15819025 -0.66000003
0.090308256 -0.15842994 -0.66100001
0.091234416 -0.15819025 -0.66000003
0.092437044 -0.15842994 -0.66100001
0.093501441 -0.15842994 -0.66100001
0.094565824 -0.15842994 -0.66100001
0.095630214 -0.15842994 -0.66100001
0.096694611 -0.15842994 -0.66100001
0.097759008 -0.15842994 -0.66100001
0.098823398 -0.15842994 -0.66100001
0.10003892 -0.15866964 -0.66200006
0.10125764 -0.15890931 -0.66300005
0.10232525 -0.15890931 -0.66300005
0.10370476 -0.15938866 -0.66500002
0.10477559 -0.15938866 -0.66500002
0.10616477 -0.15986803 -0.66700006
0.10756038 -0.1603474 -0.66900003
0.10880003 -0.16058707 -0.67000002
0.11020692 -0.16106644 -0.67200005
0.11128902 -0.16106644 -0.67200005
0.11237113 -0.16106644 -0.67200005
0.11345324 -0.16106644 -0.67200005
0.11453535 -0.16106644 -0.67200005
0.11544539 -0.16082676 -0.671
0.11669955 -0.16106644 -0.67200005
0.11778166 -0.16106644 -0.67200005
0.11886377 -0.16106644 -0.67200005
0.12012437 -0.16130613 -0.67300004
0.12120809 -0.16130613 -0.67300004
0.12247352 -0.16154581 -0.67400002
0.12374215 -0.16178548 -0.67500001
0.12482909 -0.16178548 -0.67500001
0.12591602 -0.16178548 -0.67500001
0.12700297 -0.16178548 -0.67500001
0.12827967 -0.16202518 -0.67600006
0.12917684 -0.16178548 -0.67500001
0.13026378 -0.16178548 -0.67500001
0.13135071 -0.16178548 -0.67500001
0.13243765 -0.16178548 -0.67500001
0.13352458 -0.16178548 -0.67500001
0.13461152 -0.16178548 -0.67500001
0.13569847 -0.16178548 -0.67500001
0.13678539 -0.16178548 -0.67500001
0.13787232 -0.16178548 -0.67500001
0.1387534 -0.16154581 -0.67400002
0.13983873 -0.16154581 -0.67400002
0.14092407 -0.16154581 -0.67400002
0.14200939 -0.16154581 -0.67400002
0.14330702 -0.16178548 -0.67500001
0.14439395 -0.16178548 -0.67500001
0.14569643 -0.16202518 -0.67600006
0.14678498 -0.16202518 -0.67600006
0.14809227 -0.16226485 -0.67700005
0.14918242 -0.16226485 -0.67700005
0.15027258 -0.16226485 -0.67700005
0.15136273 -0.16226485 -0.67700005
0.1522277 -0.16202518 -0.67600006
0.15308945 -0.16178548 -0.67500001
0.15417638 -0.16178548 -0.67500001
0.15526332 -0.16178548 -0.67500001
0.15611863 -0.16154581 -0.67400002
0.15720396 -0.16154581 -0.67400002
0.15852413 -0.16178548 -0.67500001
0.15961106 -0.16178548 -0.67500001
0.16093609 -0.16202518 -0.67600006
0.16226432 -0.16226485 -0.67700005
0.16335447 -0.16226485 -0.67700005
0.16444463 -0.16226485 -0.67700005
0.16577929 -0.16250454 -0.67800003
0.16711718 -0.16274422 -0.67900002
0.16870603 -0.16322359 -0.68100005
0.17005198 -0.16346326 -0.68200004
0.17140113 -0.16370295 -0.68300003
0.1727535 -0.16394262 -0.68400002
0.17436329 -0.16442201 -0.68600005
0.17597951 -0.16490136 -0.68800002
0.17785956 -0.16562042 -0.69100004
0.18000829 -0.16657914 -0.69500005
0.18164866 -0.1670585 -0.69700003
0.1835577 -0.16777755 -0.70000005
0.18494873 -0.16801722 -0.70100003
0.18687388 -0.16873628 -0.70400006
0.18854161 -0.16921563 -0.70600003
0.19021578 -0.16969499 -0.708
0.19189642 -0.17017438 -0.71000004
0.19303972 -0.17017438 -0.71000004
0.19445652 -0.17041405 -0.71100003
0.19587652 -0.17065373 -0.71200001
0.19702305 -0.17065373 -0.71200001
0.19816956 -0.17065373 -0.71200001
0.19959603 -0.17089342 -0.71300006
0.20074417 -0.17089342 -0.71300006
0.20189229 -0.17089342 -0.71300006
0.20247087 -0.17041405 -0.71100003
0.2033294 -0.17017438 -0.71000004
0.20360871 -0.16945532 -0.70700002
0.20387839 -0.16873628 -0.70400006
0.20413838 -0.16801722 -0.70100003
0.20468156 -0.16753787 -0.69900006
0.20521827 -0.1670585 -0.69700003
0.2054525 -0.16633944 -0.69400001
0.20627239 -0.16609977 -0.69300002
0.20738831 -0.16609977 -0.69300002
0.20820338 -0.16586009 -0.69200003
0.20931768 -0.16586009 -0.69200003
0.21073608 -0.16609977 -0.69300002
0.21215771 -0.16633944 -0.69400001
0.21327522 -0.16633944 -0.69400001
0.21439275 -0.16633944 -0.69400001
0.21582083 -0.16657914 -0.69500005
0.21725212 -0.16681881 -0.69600004
0.21837288 -0.16681881 -0.69600004
0.219809 -0.1670585 -0.69700003
0.22093135 -0.1670585 -0.69700003
0.22205372 -0.1670585 -0.69700003
0.22317608 -0.1670585 -0.69700003
0.22429845 -0.1670585 -0.69700003
0.22542082 -0.1670585 -0.69700003
0.22654317 -0.1670585 -0.69700003
0.22733888 -0.16681881 -0.69600004
0.22878788 -0.1670585 -0.69700003
0.2295804 -0.16681881 -0.69600004
0.23070115 -0.16681881 -0.69600004
0.23182191 -0.16681881 -0.69600004
0.23294266 -0.16681881 -0.69600004
0.23372713 -0.16657914 -0.69500005
0.23484626 -0.16657914 -0.69500005
0.23562588 -0.16633944 -0.69400001
0.23640229 -0.16609977 -0.69300002
0.23751821 -0.16609977 -0.69300002
0.23863412 -0.16609977 -0.69300002
0.240096 -0.16633944 -0.69400001
0.24121352 -0.16633944 -0.69400001
0.24233106 -0.16633944 -0.69400001
0.24379939 -0.16657914 -0.69500005
0.24527094 -0.16681881 -0.69600004
0.24639168 -0.16681881 -0.69600004
0.24822368 -0.16729818 -0.69800001
0.25006214 -0.16777755 -0.70000005
0.25154817 -0.16801722 -0.70100003
0.25339785 -0.16849659 -0.70300001
0.25489196 -0.16873628 -0.70400006
0.25638926 -0.16897596 -0.70500004
0.25788981 -0.16921563 -0.70600003
0.25902665 -0.16921563 -0.70600003
0.26016349 -0.16921563 -0.70600003
0.26093024 -0.16897596 -0.70500004
0.26206547 -0.16897596 -0.70500004
0.2628274 -0.16873628 -0.70400006
0.26358607 -0.16849659 -0.70300001
0.26396501 -0.16801722 -0.70100003
0.26547197 -0.16825691 -0.70200002
0.26622263 -0.16801722 -0.70100003
0.2677328 -0.16825691 -0.70200002
0.26924622 -0.16849659 -0.70300001
0.27076286 -0.16873628 -0.70400006
0.27189648 -0.16873628 -0.70400006
0.27341792 -0.16897596 -0.70500004
0.27533203 -0.16945532 -0.70700002
0.27725261 -0.16993469 -0.70900005
0.2791796 -0.17041405 -0.71100003
0.28071877 -0.17065373 -0.71200001
0.28265706 -0.1711331 -0.71400005
0.2842043 -0.17137279 -0.71500003
0.28575474 -0.17161246 -0.71600002
0.2869077 -0.17161246 -0.71600002
0.29036659 -0.17161246 -0.71600002
0.29151952 -0.17161246 -0.71600002
0.29267249 -0.17161246 -0.71600002
0.29382545 -0.17161246 -0.71600002
0.29456642 -0.17137279 -0.71500003
0.29530418 -0.1711331 -0.71400005
0.29603872 -0.17089342 -0.71300006
0.29677004 -0.17065373 -0.71200001
0.29749814 -0.17041405 -0.71100003
0.29864302 -0.17041405 -0.71100003
0.2993663 -0.17017438 -0.71000004
0.30008635 -0.16993469 -0.70900005
0.30080315 -0.16969499 -0.708
0.30194321 -0.16969499 -0.708
0.3030833 -0.16969499 -0.708
0.3037937 -0.16945532 -0.70700002
0.30450085 -0.16921563 -0.70600003
0.30520481 -0.16897596 -0.70500004
0.30590552 -0.16873628 -0.70400006
0.30660301 -0.16849659 -0.70300001
0.30886707 -0.16849659 -0.70300001
0.30911717 -0.16801722 -0.70100003
0.3098034 -0.16777755 -0.70000005
0.31093061 -0.16777755 -0.70000005
0.31205779 -0.16777755 -0.70000005
-0.18986066 -0.12691985 -0.52600002
-0.19301026 -0.14236256 -0.59000003
-0.19140913 -0.14187998 -0.588
-0.19013837 -0.14163868 -0.58700001
-0.18887083 -0.1413974 -0.58600003
-0.18760653 -0.14115611 -0.58500004
-0.18602633 -0.14067352 -0.583
-0.18477006 -0.14043222 -0.58200002
-0.18320116 -0.13994965 -0.58000004
-0.18195295 -0.13970836 -0.57900006
-0.1810206 -0.13970836 -0.57900006
-0.17977722 -0.13946706 -0.57800001
-0.17853706 -0.13922577 -0.57700002
-0.17760792 -0.13922577 -0.57700002
-0.17667879 -0.13922577 -0.57700002
-0.17574967 -0.13922577 -0.57700002
-0.17482054 -0.13922577 -0.57700002
-0.17419277 -0.13946706 -0.57800001
-0.17356181 -0.13970836 -0.57900006
-0.17262946 -0.13970836 -0.57900006
-0.17199364 -0.13994965 -0.58000004
-0.17135461 -0.14019093 -0.58100003
-0.17041904 -0.14019093 -0.58100003
-0.16977519 -0.14043222 -0.58200002
-0.16883799 -0.14043222 -0.58200002
-0.16790082 -0.14043222 -0.58200002
-0.16725051 -0.14067352 -0.583
-0.16631173 -0.14067352 -0.583
-0.16537292 -0.14067352 -0.583
-0.16443413 -0.14067352 -0.583
-0.16349535 -0.14067352 -0.583
-0.16255654 -0.14067352 -0.583
-0.16189499 -0.14091481 -0.58400005
-0.16095458 -0.14091481 -0.58400005
-0.16028817 -0.14115611 -0.58500004
-0.15934616 -0.14115611 -0.58500004
-0.15840417 -0.14115611 -0.58500004
-0.15773131 -0.1413974 -0.58600003
-0.15678769 -0.1413974 -0.58600003
-0.15584406 -0.1413974 -0.58600003
-0.15490045 -0.1413974 -0.58600003
-0.15395682 -0.1413974 -0.58600003
-0.1530132 -0.1413974 -0.58600003
-0.15206957 -0.1413974 -0.58600003
-0.15112595 -0.1413974 -0.58600003
-0.15018232 -0.1413974 -0.58600003
-0.14923871 -0.1413974 -0.58600003
-0.14829507 -0.1413974 -0.58600003
-0.14735147 -0.1413974 -0.58600003
-0.14615799 -0.14115611 -0.58500004
-0.14521599 -0.14115611 -0.58500004
-0.14427398 -0.14115611 -0.58500004
-0.14333197 -0.14115611 -0.58500004
-0.14238995 -0.14115611 -0.58500004
-0.14120616 -0.14091481 -0.58400005
-0.14026575 -0.14091481 -0.58400005
-0.13908677 -0.14067352 -0.583
-0.13814798 -0.14067352 -0.583
-0.13720919 -0.14067352 -0.583
-0.13603666 -0.14043222 -0.58200002
-0.13509947 -0.14043222 -0.58200002
-0.13416229 -0.14043222 -0.58200002
-0.13322511 -0.14043222 -0.58200002
-0.13228793 -0.14043222 -0.58200002
-0.13135076 -0.14043222 -0.58200002
-0.13041358 -0.14043222 -0.58200002
-0.12947638 -0.14043222 -0.58200002
-0.1285392 -0.14043222 -0.58200002
-0.12782127 -0.14067352 -0.583
-0.12688248 -0.14067352 -0.583
-0.12615973 -0.14091481 -0.58400005
-0.12543374 -0.14115611 -0.58500004
-0.12470453 -0.1413974 -0.58600003
-0.1239721 -0.14163868 -0.58700001
-0.12323645 -0.14187998 -0.588
-0.12249759 -0.14212129 -0.58900005
-0.12175551 -0.14236256 -0.59000003
-0.12121495 -0.14284515 -0.59200001
-0.12046482 -0.14308645 -0.59300005
-0.11991299 -0.14356904 -0.59500003
-0.11915479 -0.14381032 -0.59600002
-0.11839338 -0.14405161 -0.597
-0.11762876 -0.14429291 -0.59800005
-0.117056 -0.14477549 -0.60000002
-0.11628331 -0.14501677 -0.60100001
-0.11550742 -0.14525808 -0.60200006
-0.11472829 -0.14549938 -0.60300004
-0.11375729 -0.14549938 -0.60300004
-0.1127863 -0.14549938 -0.60300004
-0.11200073 -0.14574066 -0.60400003
-0.11102812 -0.14574066 -0.60400003
-0.1098733 -0.14549938 -0.60300004
-0.10890231 -0.14549938 -0.60300004
-0.10775232 -0.14525808 -0.60200006
-0.10678294 -0.14525808 -0.60200006
-0.10581355 -0.14525808 -0.60200006
-0.10484416 -0.14525808 -0.60200006
-0.10387477 -0.14525808 -0.60200006
-0.10290539 -0.14525808 -0.60200006
-0.101936 -0.14525808 -0.60200006
-0.10096661 -0.14525808 -0.60200006
-0.09999723 -0.14525808 -0.60200006
-0.099027842 -0.14525808 -0.60200006
-0.098058455 -0.14525808 -0.60200006
-0.097089067 -0.14525808 -0.60200006
-0.09611968 -0.14525808 -0.60200006
-0.095150292 -0.14525808 -0.60200006
-0.094180912 -0.14525808 -0.60200006
-0.093056679 -0.14501677 -0.60100001
-0.091782451 -0.1445342 -0.59900004
-0.090817899 -0.1445342 -0.59900004
-0.089703336 -0.14429291 -0.59800005
-0.088740386 -0.14429291 -0.59800005
-0.087777451 -0.14429291 -0.59800005
-0.0868145 -0.14429291 -0.59800005
-0.085851558 -0.14429291 -0.59800005
-0.084888607 -0.14429291 -0.59800005
-0.083925664 -0.14429291 -0.59800005
-0.083101444 -0.1445342 -0.59900004
-0.082136899 -0.1445342 -0.59900004
-0.08117234 -0.1445342 -0.59900004
-0.080207787 -0.1445342 -0.59900004
-0.079243228 -0.1445342 -0.59900004
-0.078409351 -0.14477549 -0.60000002
-0.077314109 -0.1445342 -0.59900004
-0.076477021 -0.14477549 -0.60000002
-0.075510859 -0.14477549 -0.60000002
-0.074544691 -0.14477549 -0.60000002
-0.073578522 -0.14477549 -0.60000002
-0.072612353 -0.14477549 -0.60000002
-0.071646191 -0.14477549 -0.60000002
-0.070680022 -0.14477549 -0.60000002
-0.069713853 -0.14477549 -0.60000002
-0.068747692 -0.14477549 -0.60000002
-0.067781523 -0.14477549 -0.60000002
-0.066703998 -0.1445342 -0.59900004
-0.065739445 -0.1445342 -0.59900004
-0.064774893 -0.1445342 -0.59900004
-0.063810334 -0.1445342 -0.59900004
-0.062950701 -0.14477549 -0.60000002
-0.061984528 -0.14477549 -0.60000002
-0.061120059 -0.14501677 -0.60100001
-0.060252372 -0.14525808 -0.60200006
-0.059381463 -0.14549938 -0.60300004
-0.058507331 -0.14574066 -0.60400003
-0.057629976 -0.14598195 -0.60500002
-0.056749407 -0.14622325 -0.60600001
-0.055957653 -0.14670584 -0.60800004
-0.055069026 -0.14694713 -0.60900003
-0.054177184 -0.14718841 -0.61000001
-0.053369328 -0.14767101 -0.61200005
-0.052469429 -0.14791229 -0.61300004
-0.051566318 -0.14815359 -0.61400002
-0.050659977 -0.14839488 -0.61500001
-0.049750425 -0.14863618 -0.61600006
-0.048837651 -0.14887747 -0.61700004
-0.04792165 -0.14911875 -0.61800003
-0.046926495 -0.14911875 -0.61800003
-0.04600567 -0.14936005 -0.61900002
-0.045081619 -0.14960134 -0.62
-0.044083245 -0.14960134 -0.62
-0.043084878 -0.14960134 -0.62
-0.042086504 -0.14960134 -0.62
-0.04108813 -0.14960134 -0.62
-0.040025104 -0.14936005 -0.61900002
-0.038902242 -0.14887747 -0.61700004
-0.037847258 -0.14863618 -0.61600006
-0.036795497 -0.14839488 -0.61500001
-0.022012047 -0.14887747 -0.61700004
-0.021018505 -0.14887747 -0.61700004
-0.020024965 -0.14887747 -0.61700004
-0.019031424 -0.14887747 -0.61700004
-0.018067118 -0.14911875 -0.61800003
-0.017071966 -0.14911875 -0.61800003
-0.016076814 -0.14911875 -0.61800003
-0.015081665 -0.14911875 -0.61800003
-0.014109307 -0.14936005 -0.61900002
-0.013133729 -0.14960134 -0.62
-0.012135358 -0.14960134 -0.62
-0.01115495 -0.14984263 -0.62100005
-0.010154967 -0.14984263 -0.62100005
-0.0091697276 -0.15008393 -0.62200004
-0.0081812674 -0.15032522 -0.62300003
-0.0071780649 -0.15032522 -0.62300003
-0.0061748629 -0.15032522 -0.62300003
-0.0051799612 -0.1505665 -0.62400001
-0.0041684578 -0.15032522 -0.62300003
-0.0031703361 -0.1505665 -0.62400001
-0.0021655234 -0.1505665 -0.62400001
-0.0011607107 -0.1505665 -0.62400001
-0.00015589806 -0.1505665 -0.62400001
0.00084891461 -0.1505665 -0.62400001
0.0018537273 -0.1505665 -0.62400001
0.0028631208 -0.1508078 -0.625
0.0038757352 -0.15104911 -0.62600005
0.0048837685 -0.15104911 -0.62600005
0.0058918018 -0.15104911 -0.62600005
0.0069108573 -0.15129039 -0.62700003
0.0079205008 -0.15129039 -0.62700003
0.0089443866 -0.15153168 -0.62800002
0.00995564 -0.15153168 -0.62800002
0.010984357 -0.15177298 -0.62900001
0.011997221 -0.15177298 -0.62900001
0.013010086 -0.15177298 -0.62900001
0.014022949 -0.15177298 -0.62900001
0.015059719 -0.15201427 -0.63000005
0.016048677 -0.15177298 -0.62900001
0.017088668 -0.15201427 -0.63000005
0.018103143 -0.15201427 -0.63000005
0.01914796 -0.15225556 -0.63100004
0.020164046 -0.15225556 -0.63100004
0.021213695 -0.15249686 -0.63200003
0.022231393 -0.15249686 -0.63200003
0.023285871 -0.15273814 -0.63300002
0.024343574 -0.15297943 -0.634
0.025444506 -0.15346202 -0.63600004
0.02646864 -0.15346202 -0.63600004
0.027579231 -0.1539446 -0.63800001
0.028606588 -0.1539446 -0.63800001
0.029680394 -0.15418591 -0.63900006
0.03075742 -0.1544272 -0.64000005
0.031837665 -0.15466848 -0.64100003
0.032869849 -0.15466848 -0.64100003
0.03395493 -0.15490977 -0.64200002
0.034988724 -0.15490977 -0.64200002
0.036022522 -0.15490977 -0.64200002
0.037056319 -0.15490977 -0.64200002
0.038090117 -0.15490977 -0.64200002
0.039062973 -0.15466848 -0.64100003
0.040095165 -0.15466848 -0.64100003
0.041127354 -0.15466848 -0.64100003
0.042159539 -0.15466848 -0.64100003
0.043191727 -0.15466848 -0.64100003
0.044154923 -0.1544272 -0.64000005
0.045185499 -0.1544272 -0.64000005
0.046216078 -0.1544272 -0.64000005
0.047246654 -0.1544272 -0.64000005
0.048277229 -0.1544272 -0.64000005
0.049384851 -0.15466848 -0.64100003
0.05041704 -0.15466848 -0.64100003
0.051449224 -0.15466848 -0.64100003
0.052481413 -0.15466848 -0.64100003
0.053513601 -0.15466848 -0.64100003
0.054630879 -0.15490977 -0.64200002
0.055664677 -0.15490977 -0.64200002
0.056698479 -0.15490977 -0.64200002
0.057912126 -0.15539236 -0.64400005
0.058949146 -0.15539236 -0.64400005
0.06007931 -0.15563366 -0.64500004
0.061212692 -0.15587495 -0.64600003
0.062349297 -0.15611623 -0.64700001
0.063489124 -0.15635753 -0.648
0.06463217 -0.15659884 -0.64900005
0.065778442 -0.15684012 -0.65000004
0.066927925 -0.15708141 -0.65100002
0.068080634 -0.15732269 -0.65200001
0.069236569 -0.157564 -0.65300006
0.070288077 -0.157564 -0.65300006
0.07144884 -0.15780529 -0.65400004
0.072501957 -0.15780529 -0.65400004
0.073667549 -0.15804657 -0.65500003
0.074836358 -0.15828787 -0.65600002
0.075892694 -0.15828787 -0.65600002
0.076949038 -0.15828787 -0.65600002
0.078005381 -0.15828787 -0.65600002
0.079061724 -0.15828787 -0.65600002
0.08011806 -0.15828787 -0.65600002
0.081174403 -0.15828787 -0.65600002
0.082230747 -0.15828787 -0.65600002
0.083414048 -0.15852916 -0.65700001
0.084472001 -0.15852916 -0.65700001
0.085529953 -0.15852916 -0.65700001
0.086587906 -0.15852916 -0.65700001
0.087779261 -0.15877046 -0.65800005
0.088838823 -0.15877046 -0.65800005
0.089898393 -0.15877046 -0.65800005
0.090957955 -0.15877046 -0.65800005
0.092157356 -0.15901175 -0.65900004
0.093218535 -0.15901175 -0.65900004
0.094279699 -0.15901175 -0.65900004
0.09534087 -0.15901175 -0.65900004
0.096402042 -0.15901175 -0.65900004
0.09746322 -0.15901175 -0.65900004
0.098524392 -0.15901175 -0.65900004
0.099736683 -0.15925305 -0.66000003
0.10079946 -0.15925305 -0.66000003
0.10201658 -0.15949433 -0.66100001
0.10308097 -0.15949433 -0.66100001
0.10430293 -0.15973563 -0.66200006
0.1055281 -0.15997693 -0.66300005
0.10691726 -0.1604595 -0.66500002
0.10798809 -0.1604595 -0.66500002
0.10922293 -0.1607008 -0.66600001
0.11029537 -0.1607008 -0.66600001
0.1112006 -0.1604595 -0.66500002
0.11317183 -0.16021821 -0.66400003
0.114069 -0.15997693 -0.66300005
0.11531027 -0.16021821 -0.66400003
0.1163795 -0.16021821 -0.66400003
0.11744872 -0.16021821 -0.66400003
0.11887492 -0.1607008 -0.66600001
0.11994737 -0.1607008 -0.66600001
0.12120154 -0.16094209 -0.66700006
0.12264222 -0.16142467 -0.66900003
0.12390443 -0.16166596 -0.67000002
0.12516986 -0.16190726 -0.671
0.12643851 -0.16214855 -0.67200005
0.12752062 -0.16214855 -0.67200005
0.12860273 -0.16214855 -0.67200005
0.12987781 -0.16238984 -0.67300004
0.13096152 -0.16238984 -0.67300004
0.13204524 -0.16238984 -0.67300004
0.13312896 -0.16238984 -0.67300004
0.13421267 -0.16238984 -0.67300004
0.13509536 -0.16214855 -0.67200005
0.13617747 -0.16214855 -0.67200005
0.13725957 -0.16214855 -0.67200005
0.13834168 -0.16214855 -0.67200005
0.1392163 -0.16190726 -0.671
0.1402968 -0.16190726 -0.671
0.1413773 -0.16190726 -0.671
0.14245778 -0.16190726 -0.671
0.14353828 -0.16190726 -0.671
0.14461878 -0.16190726 -0.671
0.14569928 -0.16190726 -0.671
0.14677978 -0.16190726 -0.671
0.14763992 -0.16166596 -0.67000002
0.14871879 -0.16166596 -0.67000002
0.1495741 -0.16142467 -0.66900003
0.15065138 -0.16142467 -0.66900003
0.15150186 -0.16118339 -0.66800004
0.15257752 -0.16118339 -0.66800004
0.15365319 -0.16118339 -0.66800004
0.15472886 -0.16118339 -0.66800004
0.15557128 -0.16094209 -0.66700006
0.15688019 -0.16118339 -0.66800004
0.15819231 -0.16142467 -0.66900003
0.15950765 -0.16166596 -0.67000002
0.16058654 -0.16166596 -0.67000002
0.16190672 -0.16190726 -0.671
0.1629872 -0.16190726 -0.671
0.16431221 -0.16214855 -0.67200005
0.16539434 -0.16214855 -0.67200005
0.17207572 -0.16335502 -0.67700005
0.17367744 -0.1638376 -0.67900002
0.17528562 -0.16432019 -0.68100005
0.17715922 -0.16504405 -0.68400002
0.1787819 -0.16552664 -0.68600005
0.18224658 -0.16769828 -0.69500005
0.18442106 -0.16866346 -0.69900006
0.18634298 -0.16938733 -0.70200002
0.18800749 -0.16986991 -0.70400006
0.18994711 -0.17059378 -0.70700002
0.19162615 -0.17107637 -0.70900005
0.19303972 -0.17131767 -0.71000004
0.19418302 -0.17131767 -0.71000004
0.19532631 -0.17131767 -0.71000004
0.19646962 -0.17131767 -0.71000004
0.19761291 -0.17131767 -0.71000004
0.19847627 -0.17107637 -0.70900005
0.19961797 -0.17107637 -0.70900005
0.20047648 -0.17083508 -0.708
0.2004775 -0.16986991 -0.70400006
0.20103836 -0.16938733 -0.70200002
0.20130481 -0.16866346 -0.69900006
0.20156159 -0.16793957 -0.69600004
0.20180869 -0.16721569 -0.69300002
0.20233899 -0.16673312 -0.69100004
0.20286281 -0.16625051 -0.68900001
0.20367627 -0.16600923 -0.68800002
0.20448649 -0.16576794 -0.68700004
0.20559275 -0.16576794 -0.68700004
0.20699988 -0.16600923 -0.68800002
0.20810775 -0.16600923 -0.68800002
0.20951971 -0.16625051 -0.68900001
0.21062919 -0.16625051 -0.68900001
0.21173866 -0.16625051 -0.68900001
0.21315707 -0.16649182 -0.69000006
0.21426816 -0.16649182 -0.69000006
0.21537927 -0.16649182 -0.69000006
0.21649036 -0.16649182 -0.69000006
0.21760145 -0.16649182 -0.69000006
0.21871254 -0.16649182 -0.69000006
0.21982363 -0.16649182 -0.69000006
0.22093472 -0.16649182 -0.69000006
0.22204582 -0.16649182 -0.69000006
0.22283348 -0.16625051 -0.68900001
0.22394297 -0.16625051 -0.68900001
0.22505243 -0.16625051 -0.68900001
0.22616191 -0.16625051 -0.68900001
0.22694154 -0.16600923 -0.68800002
0.22915728 -0.16600923 -0.68800002
0.22993048 -0.16576794 -0.68700004
0.23103674 -0.16576794 -0.68700004
0.232143 -0.16576794 -0.68700004
0.23324925 -0.16576794 -0.68700004
0.23435551 -0.16576794 -0.68700004
0.23546177 -0.16576794 -0.68700004
0.23656803 -0.16576794 -0.68700004
0.2376743 -0.16576794 -0.68700004
0.23878054 -0.16576794 -0.68700004
0.24023598 -0.16600923 -0.68800002
0.24169464 -0.16625051 -0.68900001
0.24280412 -0.16625051 -0.68900001
0.24426763 -0.16649182 -0.69000006
0.24573433 -0.16673312 -0.69100004
0.24720427 -0.1669744 -0.69200003
0.24903625 -0.16745698 -0.69400001
0.2508747 -0.16793957 -0.69600004
0.25271958 -0.16842215 -0.69800001
0.25420725 -0.16866346 -0.69900006
0.25569811 -0.16890475 -0.70000005
0.25682527 -0.16890475 -0.70000005
0.25795248 -0.16890475 -0.70000005
0.25907966 -0.16890475 -0.70000005
0.26020688 -0.16890475 -0.70000005
0.26096073 -0.16866346 -0.69900006
0.26171136 -0.16842215 -0.69800001
0.26283532 -0.16842215 -0.69800001
0.26358116 -0.16818087 -0.69700003
0.26470351 -0.16818087 -0.69700003
0.26620725 -0.16842215 -0.69800001
0.26771423 -0.16866346 -0.69900006
0.26922444 -0.16890475 -0.70000005
0.27035162 -0.16890475 -0.70000005
0.27186662 -0.16914603 -0.70100003
0.2737743 -0.16962862 -0.70300001
0.27529737 -0.16986991 -0.70400006
0.27721632 -0.17035249 -0.70600003
0.27874744 -0.17059378 -0.70700002
0.28067768 -0.17107637 -0.70900005
0.28181937 -0.17107637 -0.70900005
0.28336015 -0.17131767 -0.71000004
0.28450346 -0.17131767 -0.71000004
0.28564674 -0.17131767 -0.71000004
0.28679004 -0.17131767 -0.71000004
0.28793335 -0.17131767 -0.71000004
0.28907663 -0.17131767 -0.71000004
0.29021993 -0.17131767 -0.71000004
0.29136321 -0.17131767 -0.71000004
0.29250652 -0.17131767 -0.71000004
0.29364982 -0.17131767 -0.71000004
0.29437792 -0.17107637 -0.70900005
0.29551959 -0.17107637 -0.70900005
0.29624286 -0.17083508 -0.708
0.29738292 -0.17083508 -0.708
0.29810137 -0.17059378 -0.70700002
0.29881659 -0.17035249 -0.70600003
0.2995286 -0.17011121 -0.70500004
0.3006638 -0.17011121 -0.70500004
0.30137098 -0.16986991 -0.70400006
0.30207491 -0.16962862 -0.70300001
0.30277562 -0.16938733 -0.70200002
0.30347314 -0.16914603 -0.70100003
0.30460194 -0.16914603 -0.70100003
0.30529463 -0.16890475 -0.70000005
0.30598408 -0.16866346 -0.69900006
0.30710965 -0.16866346 -0.69900006
0.30779427 -0.16842215 -0.69800001
0.30891824 -0.16842215 -0.69800001
0.30959803 -0.16818087 -0.69700003
0.31072038 -0.16818087 -0.69700003
0.31139535 -0.16793957 -0.69600004
-0.19240168 -0.12776686 -0.52600002
-0.19191884 -0.12800975 -0.52700001
-0.19107023 -0.12800975 -0.52700001
-0.19022161 -0.12800975 -0.52700001
-0.18973233 -0.12825266 -0.528
-0.19075808 -0.14234102 -0.58600003
-0.18916664 -0.14185522 -0.58400005
-0.18790391 -0.14161231 -0.583
-0.18664443 -0.1413694 -0.58200002
-0.18475001 -0.14064071 -0.57900006
-0.1831827 -0.1401549 -0.57700002
-0.18162185 -0.13966909 -0.57500005
-0.18069594 -0.13966909 -0.57500005
-0.17729937 -0.13918328 -0.57300001
-0.17637667 -0.13918328 -0.57300001
-0.17545399 -0.13918328 -0.57300001
-0.1745313 -0.13918328 -0.57300001
-0.1736086 -0.13918328 -0.57300001
-0.17268592 -0.13918328 -0.57300001
-0.17206298 -0.13942619 -0.574
-0.17113869 -0.13942619 -0.574
-0.17080748 -0.13991199 -0.57600003
-0.16987996 -0.13991199 -0.57600003
-0.16895244 -0.13991199 -0.57600003
-0.16831663 -0.1401549 -0.57700002
-0.1676776 -0.1403978 -0.57800001
-0.16674685 -0.1403978 -0.57800001
-0.16581611 -0.1403978 -0.57800001
-0.16488537 -0.1403978 -0.57800001
-0.16395463 -0.1403978 -0.57800001
-0.16302389 -0.1403978 -0.57800001
-0.16209315 -0.1403978 -0.57800001
-0.16116241 -0.1403978 -0.57800001
-0.1605089 -0.14064071 -0.57900006
-0.15957655 -0.14064071 -0.57900006
-0.1586442 -0.14064071 -0.57900006
-0.15771185 -0.14064071 -0.57900006
-0.15705028 -0.14088361 -0.58000004
-0.15611632 -0.14088361 -0.58000004
-0.15518236 -0.14088361 -0.58000004
-0.15451434 -0.14112651 -0.58100003
-0.15357877 -0.14112651 -0.58100003
-0.15264319 -0.14112651 -0.58100003
-0.15196873 -0.1413694 -0.58200002
-0.15103155 -0.1413694 -0.58200002
-0.15009438 -0.1413694 -0.58200002
-0.14915718 -0.1413694 -0.58200002
-0.14847468 -0.14161231 -0.583
-0.14728282 -0.1413694 -0.58200002
-0.14634566 -0.1413694 -0.58200002
-0.14540847 -0.1413694 -0.58200002
-0.14447129 -0.1413694 -0.58200002
-0.14353411 -0.1413694 -0.58200002
-0.14259693 -0.1413694 -0.58200002
-0.14165975 -0.1413694 -0.58200002
-0.14048077 -0.14112651 -0.58100003
-0.1395452 -0.14112651 -0.58100003
-0.13837107 -0.14088361 -0.58000004
-0.13743711 -0.14088361 -0.58000004
-0.13650315 -0.14088361 -0.58000004
-0.13533545 -0.14064071 -0.57900006
-0.13440309 -0.14064071 -0.57900006
-0.13347074 -0.14064071 -0.57900006
-0.13253839 -0.14064071 -0.57900006
-0.13160606 -0.14064071 -0.57900006
-0.130448 -0.1403978 -0.57800001
-0.12974134 -0.14064071 -0.57900006
-0.12880899 -0.14064071 -0.57900006
-0.12787664 -0.14064071 -0.57900006
-0.12694429 -0.14064071 -0.57900006
-0.12601194 -0.14064071 -0.57900006
-0.12529562 -0.14088361 -0.58000004
-0.12457607 -0.14112651 -0.58100003
-0.1238533 -0.1413694 -0.58200002
-0.12333852 -0.14185522 -0.58400005
-0.1226077 -0.14209813 -0.58500004
-0.12187366 -0.14234102 -0.58600003
-0.12134277 -0.14282683 -0.588
-0.12060069 -0.14306973 -0.58900005
-0.12026166 -0.14379844 -0.59200001
-0.11971145 -0.14428425 -0.59400004
-0.11915479 -0.14477004 -0.59600002
-0.1185917 -0.14525586 -0.59800005
-0.11762876 -0.14525586 -0.59800005
-0.11725108 -0.14598456 -0.60100001
-0.1164768 -0.14622748 -0.60200006
-0.11569928 -0.14647037 -0.60300004
-0.11472829 -0.14647037 -0.60300004
-0.11375729 -0.14647037 -0.60300004
-0.1127863 -0.14647037 -0.60300004
-0.1118153 -0.14647037 -0.60300004
-0.1108443 -0.14647037 -0.60300004
-0.10969109 -0.14622748 -0.60200006
-0.10854109 -0.14598456 -0.60100001
-0.10739433 -0.14574166 -0.60000002
-0.10625079 -0.14549875 -0.59900004
-0.10528623 -0.14549875 -0.59900004
-0.10414752 -0.14525586 -0.59800005
-0.10318457 -0.14525586 -0.59800005
-0.10205068 -0.14501294 -0.597
-0.10108934 -0.14501294 -0.597
-0.10012801 -0.14501294 -0.597
-0.099166676 -0.14501294 -0.597
-0.098369852 -0.14525586 -0.59800005
-0.097406901 -0.14525586 -0.59800005
-0.096443951 -0.14525586 -0.59800005
-0.095481008 -0.14525586 -0.59800005
-0.094359994 -0.14501294 -0.597
-0.093398668 -0.14501294 -0.597
-0.092282496 -0.14477004 -0.59600002
-0.091169544 -0.14452715 -0.59500003
-0.090059817 -0.14428425 -0.59400004
-0.088953309 -0.14404134 -0.59300005
-0.088146806 -0.14428425 -0.59400004
-0.087043524 -0.14404134 -0.59300005
-0.086233802 -0.14428425 -0.59400004
-0.085277297 -0.14428425 -0.59400004
-0.084320791 -0.14428425 -0.59400004
-0.083504625 -0.14452715 -0.59500003
-0.08254651 -0.14452715 -0.59500003
-0.081725523 -0.14477004 -0.59600002
-0.080765799 -0.14477004 -0.59600002
-0.079806075 -0.14477004 -0.59600002
-0.078978635 -0.14501294 -0.597
-0.078017302 -0.14501294 -0.597
-0.077055961 -0.14501294 -0.597
-0.076094635 -0.14501294 -0.597
-0.075133301 -0.14501294 -0.597
-0.07417196 -0.14501294 -0.597
-0.073210627 -0.14501294 -0.597
-0.072249293 -0.14501294 -0.597
-0.07128796 -0.14501294 -0.597
-0.070326619 -0.14501294 -0.597
-0.069365285 -0.14501294 -0.597
-0.068289377 -0.14477004 -0.59600002
-0.067329645 -0.14477004 -0.59600002
-0.066481277 -0.14501294 -0.597
-0.065410197 -0.14477004 -0.59600002
-0.06455861 -0.14501294 -0.597
-0.063597277 -0.14501294 -0.597
-0.062635943 -0.14501294 -0.597
-0.061777916 -0.14525586 -0.59800005
-0.060814969 -0.14525586 -0.59800005
-0.05995211 -0.14549875 -0.59900004
-0.059086032 -0.14574166 -0.60000002
-0.058216728 -0.14598456 -0.60100001
-0.057344213 -0.14622748 -0.60200006
-0.056562118 -0.14671327 -0.60400003
-0.055589508 -0.14671327 -0.60400003
-0.05479775 -0.14719906 -0.60600001
-0.053999558 -0.14768489 -0.60800004
-0.053194914 -0.14817068 -0.61000001
-0.052298237 -0.14841358 -0.611
-0.051398352 -0.1486565 -0.61200005
-0.050495233 -0.14889939 -0.61300004
-0.049588893 -0.1491423 -0.61400002
-0.048679341 -0.1493852 -0.61500001
-0.047689017 -0.1493852 -0.61500001
-0.046774633 -0.14962812 -0.61600006
-0.045857027 -0.14987101 -0.61700004
-0.044790775 -0.14962812 -0.61600006
-0.043798842 -0.14962812 -0.61600006
-0.042806912 -0.14962812 -0.61600006
-0.041882861 -0.14987101 -0.61700004
-0.04082305 -0.14962812 -0.61600006
-0.039831121 -0.14962812 -0.61600006
-0.038776137 -0.1493852 -0.61500001
-0.037724376 -0.1491423 -0.61400002
-0.022968302 -0.14962812 -0.61600006
-0.021976372 -0.14962812 -0.61600006
-0.021018505 -0.14987101 -0.61700004
-0.01999251 -0.14962812 -0.61600006
-0.019031424 -0.14987101 -0.61700004
-0.018037884 -0.14987101 -0.61700004
-0.017044343 -0.14987101 -0.61700004
-0.016050801 -0.14987101 -0.61700004
-0.015057261 -0.14987101 -0.61700004
-0.014086514 -0.15011391 -0.61800003
-0.013091362 -0.15011391 -0.61800003
-0.012096212 -0.15011391 -0.61800003
-0.011119023 -0.15035681 -0.61900002
-0.010122262 -0.15035681 -0.61900002
-0.0091255009 -0.15035681 -0.61900002
-0.0081418706 -0.1505997 -0.62
-0.0071434998 -0.1505997 -0.62
-0.006145128 -0.1505997 -0.62
-0.0051467563 -0.1505997 -0.62
-0.0041483846 -0.1505997 -0.62
-0.0031500135 -0.1505997 -0.62
-0.0021516418 -0.1505997 -0.62
-0.0011532702 -0.1505997 -0.62
-0.00015489871 -0.1505997 -0.62
0.00084347284 -0.1505997 -0.62
0.0018418444 -0.1505997 -0.62
0.002844797 -0.15084262 -0.62100005
0.0038509702 -0.15108553 -0.62200004
0.0048603639 -0.15132843 -0.62300003
0.005863566 -0.15132843 -0.62300003
0.0068777907 -0.15157132 -0.62400001
0.0078826034 -0.15157132 -0.62400001
0.0088874158 -0.15157132 -0.62400001
0.009908081 -0.15181422 -0.625
0.010914505 -0.15181422 -0.625
0.011940001 -0.15205714 -0.62600005
0.012948034 -0.15205714 -0.62600005
0.013956068 -0.15205714 -0.62600005
0.014964102 -0.15205714 -0.62600005
0.015972134 -0.15205714 -0.62600005
0.016980167 -0.15205714 -0.62600005
0.017988201 -0.15205714 -0.62600005
0.018996233 -0.15205714 -0.62600005
0.020004267 -0.15205714 -0.62600005
0.021045865 -0.15230003 -0.62700003
0.02205551 -0.15230003 -0.62700003
0.023101939 -0.15254293 -0.62800002
0.024151592 -0.15278584 -0.62900001
0.025244469 -0.15327165 -0.63100004
0.02630217 -0.15351455 -0.63200003
0.027363094 -0.15375745 -0.63300002
0.028427236 -0.15400034 -0.634
0.0294946 -0.15424326 -0.63500005
0.030565185 -0.15448616 -0.63600004
0.031638987 -0.15472907 -0.63700002
0.032664735 -0.15472907 -0.63700002
0.03374337 -0.15497196 -0.63800001
0.034770727 -0.15497196 -0.63800001
0.035798084 -0.15497196 -0.63800001
0.036825441 -0.15497196 -0.63800001
0.037852798 -0.15497196 -0.63800001
0.038880151 -0.15497196 -0.63800001
0.03984496 -0.15472907 -0.63700002
0.040870707 -0.15472907 -0.63700002
0.041830681 -0.15448616 -0.63600004
0.042854816 -0.15448616 -0.63600004
0.043878954 -0.15448616 -0.63600004
0.044832487 -0.15424326 -0.63500005
0.045855012 -0.15424326 -0.63500005
0.046877541 -0.15424326 -0.63500005
0.047975495 -0.15448616 -0.63600004
0.048999634 -0.15448616 -0.63600004
0.050023772 -0.15448616 -0.63600004
0.051047903 -0.15448616 -0.63600004
0.052072041 -0.15448616 -0.63600004
0.053096179 -0.15448616 -0.63600004
0.05412031 -0.15448616 -0.63600004
0.055231154 -0.15472907 -0.63700002
0.056256901 -0.15472907 -0.63700002
0.05737257 -0.15497196 -0.63800001
0.058491468 -0.15521488 -0.63900006
0.059706725 -0.15570067 -0.64100003
0.060833663 -0.15594357 -0.64200002
0.061867464 -0.15594357 -0.64200002
0.063097224 -0.1564294 -0.64400005
0.064233825 -0.15667228 -0.64500004
0.065373644 -0.15691519 -0.64600003
0.066516697 -0.15715809 -0.64700001
0.067558542 -0.15715809 -0.64700001
0.068706416 -0.15740098 -0.648
0.069857523 -0.1576439 -0.64900005
0.070902593 -0.1576439 -0.64900005
0.072058521 -0.1578868 -0.65000004
0.073105201 -0.1578868 -0.65000004
0.074265957 -0.15812971 -0.65100002
0.075429931 -0.1583726 -0.65200001
0.076479837 -0.1583726 -0.65200001
0.077529736 -0.1583726 -0.65200001
0.078579634 -0.1583726 -0.65200001
0.07962954 -0.1583726 -0.65200001
0.080679439 -0.1583726 -0.65200001
0.081729338 -0.1583726 -0.65200001
0.082779236 -0.1583726 -0.65200001
0.083829142 -0.1583726 -0.65200001
0.084879041 -0.1583726 -0.65200001
0.086060748 -0.15861551 -0.65300006
0.087245651 -0.15885842 -0.65400004
0.08843378 -0.15910131 -0.65500003
0.089488514 -0.15910131 -0.65500003
0.090681478 -0.15934421 -0.65600002
0.091737822 -0.15934421 -0.65600002
0.092794165 -0.15934421 -0.65600002
0.093993559 -0.15958712 -0.65700001
0.09505152 -0.15958712 -0.65700001
0.096109472 -0.15958712 -0.65700001
0.097167425 -0.15958712 -0.65700001
0.098225378 -0.15958712 -0.65700001
0.09928333 -0.15958712 -0.65700001
0.10034128 -0.15958712 -0.65700001
0.10155357 -0.15983002 -0.65800005
0.10261314 -0.15983002 -0.65800005
0.10383026 -0.16007292 -0.65900004
0.10489143 -0.16007292 -0.65900004
0.10611337 -0.16031583 -0.66000003
0.10733854 -0.16055873 -0.66100001
0.10840293 -0.16055873 -0.66100001
0.10930172 -0.16031583 -0.66000003
0.1103645 -0.16031583 -0.66000003
0.11142728 -0.16031583 -0.66000003
0.11231963 -0.16007292 -0.65900004
0.1133808 -0.16007292 -0.65900004
0.11444198 -0.16007292 -0.65900004
0.11550315 -0.16007292 -0.65900004
0.11691808 -0.16055873 -0.66100001
0.11798247 -0.16055873 -0.66100001
0.11922698 -0.16080163 -0.66200006
0.12047469 -0.16104454 -0.66300005
0.12172561 -0.16128744 -0.66400003
0.1231647 -0.16177323 -0.66600001
0.1244237 -0.16201615 -0.66700006
0.1256859 -0.16225906 -0.66800004
0.12676157 -0.16225906 -0.66800004
0.1280286 -0.16250195 -0.66900003
0.12910587 -0.16250195 -0.66900003
0.13037774 -0.16274485 -0.67000002
0.13165283 -0.16298775 -0.671
0.13273333 -0.16298775 -0.671
0.13361441 -0.16274485 -0.67000002
0.13489433 -0.16298775 -0.671
0.13577217 -0.16274485 -0.67000002
0.13685106 -0.16274485 -0.67000002
0.13792995 -0.16274485 -0.67000002
0.13880135 -0.16250195 -0.66900003
0.13987863 -0.16250195 -0.66900003
0.14074521 -0.16225906 -0.66800004
0.14182086 -0.16225906 -0.66800004
0.14289653 -0.16225906 -0.66800004
0.1439722 -0.16225906 -0.66800004
0.14504787 -0.16225906 -0.66800004
0.14590479 -0.16201615 -0.66700006
0.14675848 -0.16177323 -0.66600001
0.14783092 -0.16177323 -0.66600001
0.14867978 -0.16153033 -0.66500002
0.14975062 -0.16153033 -0.66500002
0.15082146 -0.16153033 -0.66500002
0.15143548 -0.16104454 -0.66300005
0.15250309 -0.16104454 -0.66300005
0.15357071 -0.16104454 -0.66300005
0.15463832 -0.16104454 -0.66300005
0.15570593 -0.16104454 -0.66300005
0.15701 -0.16128744 -0.66400003
0.15807922 -0.16128744 -0.66400003
0.15914845 -0.16128744 -0.66400003
0.16021767 -0.16128744 -0.66400003
0.16128689 -0.16128744 -0.66400003
0.16260062 -0.16153033 -0.66500002
0.16367146 -0.16153033 -0.66500002
0.16474231 -0.16153033 -0.66500002
0.16581313 -0.16153033 -0.66500002
0.16713491 -0.16177323 -0.66600001
0.16845994 -0.16201615 -0.66700006
0.17643636 -0.16444518 -0.67700005
0.17831318 -0.16517387 -0.68000001
0.1809912 -0.1666313 -0.68600005
0.1847503 -0.16906033 -0.69600004
0.18613809 -0.16930322 -0.69700003
0.18887246 -0.17076065 -0.70300001
0.19108559 -0.17173225 -0.70700002
0.19276784 -0.17221807 -0.70900005
0.19390953 -0.17221807 -0.70900005
0.19532631 -0.17246097 -0.71000004
0.19619291 -0.17221807 -0.70900005
0.19705625 -0.17197515 -0.708
0.19791639 -0.17173225 -0.70700002
0.19849177 -0.17124645 -0.70500004
0.19877753 -0.17051774 -0.70200002
0.19876887 -0.16954613 -0.69800001
0.19846095 -0.16833161 -0.69300002
0.1987129 -0.16760291 -0.69000006
0.19895518 -0.1668742 -0.68700004
0.19977024 -0.1666313 -0.68600005
0.20109624 -0.16590258 -0.68300003
0.20190002 -0.1656597 -0.68200004
0.20270059 -0.16541679 -0.68100005
0.20379719 -0.16541679 -0.68100005
0.20489378 -0.16541679 -0.68100005
0.20629287 -0.1656597 -0.68200004
0.20769516 -0.16590258 -0.68300003
0.20879498 -0.16590258 -0.68300003
0.20989479 -0.16590258 -0.68300003
0.21130352 -0.16614549 -0.68400002
0.21240495 -0.16614549 -0.68400002
0.21350639 -0.16614549 -0.68400002
0.21492158 -0.16638841 -0.68500006
0.21570925 -0.16614549 -0.68400002
0.21681067 -0.16614549 -0.68400002
0.21759354 -0.16590258 -0.68300003
0.21979317 -0.16590258 -0.68300003
0.22056958 -0.1656597 -0.68200004
0.2216678 -0.1656597 -0.68200004
0.22243935 -0.16541679 -0.68100005
0.22353595 -0.16541679 -0.68100005
0.22463255 -0.16541679 -0.68100005
0.22572915 -0.16541679 -0.68100005
0.22649266 -0.16517387 -0.68000001
0.22758764 -0.16517387 -0.68000001
0.22868264 -0.16517387 -0.68000001
0.23011555 -0.16541679 -0.68100005
0.23121215 -0.16541679 -0.68100005
0.23230875 -0.16541679 -0.68100005
0.23374808 -0.1656597 -0.68200004
0.23484629 -0.1656597 -0.68200004
0.23594451 -0.1656597 -0.68200004
0.23739026 -0.16590258 -0.68300003
0.23849007 -0.16590258 -0.68300003
0.2395899 -0.16590258 -0.68300003
0.24104212 -0.16614549 -0.68400002
0.24249758 -0.16638841 -0.68500006
0.24395624 -0.1666313 -0.68600005
0.24541812 -0.1668742 -0.68700004
0.24724205 -0.16736001 -0.68900001
0.248712 -0.16760291 -0.69000006
0.2505472 -0.16808872 -0.69200003
0.25202519 -0.16833161 -0.69300002
0.25350639 -0.16857451 -0.69400001
0.25462392 -0.16857451 -0.69400001
0.25574145 -0.16857451 -0.69400001
0.25685897 -0.16857451 -0.69400001
0.2579765 -0.16857451 -0.69400001
0.25909403 -0.16857451 -0.69400001
0.26021159 -0.16857451 -0.69400001
0.26132911 -0.16857451 -0.69400001
0.26244664 -0.16857451 -0.69400001
0.26356417 -0.16857451 -0.69400001
0.26506311 -0.16881743 -0.69500005
0.26618224 -0.16881743 -0.69500005
0.26768601 -0.16906033 -0.69600004
0.26880676 -0.16906033 -0.69600004
0.27031532 -0.16930322 -0.69700003
0.27221656 -0.16978905 -0.69900006
0.2737332 -0.17003193 -0.70000005
0.2756457 -0.17051774 -0.70200002
0.27677611 -0.17051774 -0.70200002
0.2783024 -0.17076065 -0.70300001
0.27863947 -0.17027484 -0.70100003
0.27976826 -0.17027484 -0.70100003
0.28089708 -0.17027484 -0.70100003
0.28202587 -0.17027484 -0.70100003
0.28275076 -0.17003193 -0.70000005
0.28306687 -0.16954613 -0.69800001
0.2841908 -0.16954613 -0.69800001
0.2853148 -0.16954613 -0.69800001
0.28684914 -0.16978905 -0.69900006
0.2883867 -0.17003193 -0.70000005
0.28951392 -0.17003193 -0.70000005
0.29105631 -0.17027484 -0.70100003
0.29260191 -0.17051774 -0.70200002
0.29373232 -0.17051774 -0.70200002
0.29528278 -0.17076065 -0.70300001
0.29641479 -0.17076065 -0.70300001
0.29754683 -0.17076065 -0.70300001
0.29825398 -0.17051774 -0.70200002
0.29938439 -0.17051774 -0.70200002
0.30008674 -0.17027484 -0.70100003
0.30121553 -0.17027484 -0.70100003
0.30191302 -0.17003193 -0.70000005
0.30304024 -0.17003193 -0.70000005
0.3037329 -0.16978905 -0.69900006
0.30485851 -0.16978905 -0.69900006
0.30510858 -0.16930322 -0.69700003
0.30623093 -0.16930322 -0.69700003
0.30691233 -0.16906033 -0.69600004
0.30803311 -0.16906033 -0.69600004
0.30915385 -0.16906033 -0.69600004
-0.19324869 -0.12861386 -0.52600002
-0.19276746 -0.12885837 -0.52700001
-0.19191884 -0.12885837 -0.52700001
-0.19143279 -0.12910289 -0.528
-0.19058256 -0.12910289 -0.528
-0.19009168 -0.1293474 -0.52900004
-0.18923984 -0.1293474 -0.52900004
-0.18067425 -0.13986146 -0.57200003
-0.17943892 -0.13961695 -0.57100004
-0.17820682 -0.13937244 -0.57000005
-0.17697792 -0.13912793 -0.56900001
-0.17606167 -0.13912793 -0.56900001
-0.17483762 -0.13888341 -0.56800002
-0.17392297 -0.13888341 -0.56800002
-0.17300834 -0.13888341 -0.56800002
-0.1720937 -0.13888341 -0.56800002
-0.17148043 -0.13912793 -0.56900001
-0.17056417 -0.13912793 -0.56900001
-0.16994609 -0.13937244 -0.57000005
-0.16932477 -0.13961695 -0.57100004
-0.16840531 -0.13961695 -0.57100004
-0.16777915 -0.13986146 -0.57200003
-0.16685809 -0.13986146 -0.57200003
-0.1662271 -0.14010598 -0.57300001
-0.16530441 -0.14010598 -0.57300001
-0.16438173 -0.14010598 -0.57300001
-0.16345903 -0.14010598 -0.57300001
-0.16253634 -0.14010598 -0.57300001
-0.16161366 -0.14010598 -0.57300001
-0.16069096 -0.14010598 -0.57300001
-0.15976827 -0.14010598 -0.57300001
-0.15884559 -0.14010598 -0.57300001
-0.15819849 -0.14035048 -0.574
-0.1572742 -0.14035048 -0.574
-0.1563499 -0.14035048 -0.574
-0.15569641 -0.140595 -0.57500005
-0.15477049 -0.140595 -0.57500005
-0.15411213 -0.14083952 -0.57600003
-0.15318461 -0.14083952 -0.57600003
-0.1522571 -0.14083952 -0.57600003
-0.1515923 -0.14108403 -0.57700002
-0.15066317 -0.14108403 -0.57700002
-0.14973404 -0.14108403 -0.57700002
