# .PCD v0.7 - Point Cloud Data file format
VERSION 0.7
FIELDS x y z
SIZE 4 4 4
TYPE F F F
COUNT 1 1 1
WIDTH 1308
HEIGHT 1
VIEWPOINT 0 0 0 1 0 0 0
POINTS 1308
DATA ascii
0.14731364 0.0093273455 -0.69971377
0.14821886 0.0095260516 -0.69958115
0.14934963 0.0094974767 -0.69945234
0.15024446 0.0096883178 -0.69931334
0.15137599 0.0096553816 -0.69918948
0.15226397 0.0098527828 -0.69907296
0.15314987 0.01005285 -0.69894928
0.15427718 0.010024381 -0.69884765
0.15516086 0.010238278 -0.69874507
0.15604769 0.010457481 -0.69863814
0.15717654 0.010437858 -0.69855523
0.15807389 0.010671841 -0.69846267
0.1589817 0.010906908 -0.69836557
0.16012166 0.010890581 -0.69828165
0.16125961 0.010876765 -0.69820964
0.16239542 0.010858735 -0.69812888
0.1635291 0.01084089 -0.69805294
0.16466229 0.010822431 -0.69798541
0.16579507 0.010811696 -0.69795108
0.16692334 0.010811724 -0.69795799
0.16805346 0.01081529 -0.6979804
0.16918136 0.010829544 -0.6980443
0.17049608 0.010602917 -0.69818151
0.17162335 0.010651046 -0.69836926
0.17294806 0.010473417 -0.69866496
0.1742938 0.01032758 -0.69908446
0.17542833 0.010440568 -0.69950104
0.17679544 0.010350149 -0.70011628
0.17791498 0.010509132 -0.70071727
-0.05226665 0.01087636 -0.81898946
-0.051313475 0.010791396 -0.81843096
-0.050340254 0.010726071 -0.81786138
-0.048889738 0.010726699 -0.81698519
-0.04836956 0.010632447 -0.8166464
-0.046917021 0.010637918 -0.81576538
-0.045923144 0.010612045 -0.81514192
-0.044930872 0.010624764 -0.81443554
-0.043913588 0.010633342 -0.81378448
-0.042915829 0.01066686 -0.81311911
-0.041484203 0.010669893 -0.81224835
-0.040495053 0.010717499 -0.81156713
-0.039506249 0.010727826 -0.8109203
-0.038138371 0.010703767 -0.810072
-0.037181702 0.010713868 -0.80942303
-0.035473991 0.010664238 -0.80839384
-0.034175366 0.010640652 -0.80750203
-0.032910395 0.010627611 -0.80664372
-0.031222474 0.010568577 -0.80543554
-0.029998528 0.010572478 -0.80443603
-0.0288056 0.010591866 -0.80341554
-0.026698638 0.010579207 -0.80160779
-0.025025068 0.010586594 -0.80008781
-0.023320334 0.010566853 -0.79861665
-0.021115238 0.010502962 -0.79659218
-0.019373022 0.010434637 -0.79502898
-0.016884666 0.010144169 -0.79310602
-0.014299983 0.009737961 -0.79109377
-0.010936838 0.0090843951 -0.78841406
-0.0083289044 0.008862501 -0.78598875
-0.0059771365 0.0088619348 -0.78316838
-0.0045529595 0.0089389561 -0.78082699
-0.003033774 0.0092835017 -0.77740616
-0.0025016698 0.0094863558 -0.77584422
-0.0019118249 0.0097566815 -0.77324152
-0.0014805888 0.0099562677 -0.77076864
-0.0013475838 0.01004007 -0.76928508
-0.0011546926 0.010112583 -0.76689112
-0.001079574 0.010096553 -0.76550531
-0.00065640116 0.010053677 -0.76224893
0.0060655768 0.00919207 -0.70935106
0.0090341708 0.0096295467 -0.70586616
0.010785447 0.009913316 -0.70441753
0.012123159 0.010161303 -0.70353937
0.013403218 0.010408002 -0.70285106
0.014541935 0.010566839 -0.70246065
0.015540564 0.010597763 -0.70238936
0.016595284 0.010584749 -0.70232826
0.017691368 0.010520483 -0.70230108
0.018635357 0.010269137 -0.70243305
0.019763367 0.010233575 -0.70238411
0.020620827 0.010036071 -0.7024613
0.021441128 0.0098539395 -0.70250344
0.022233538 0.0096514737 -0.70250398
0.022999512 0.0094704432 -0.70249718
0.024071321 0.0094460929 -0.70237255
0.024812657 0.0092689414 -0.70229995
0.025549013 0.0091007864 -0.70220572
0.026618546 0.0090722991 -0.70202142
0.027700696 0.009047485 -0.70183969
0.028786654 0.0090202261 -0.70164526
0.029874701 0.008992604 -0.70144296
0.030985834 0.0089710504 -0.70127225
0.032106053 0.0089467773 -0.70111722
0.033252958 0.0089297416 -0.70102799
0.034504414 0.0090053556 -0.7005524
0.035792392 0.0091104517 -0.70033926
0.037042592 0.0092044426 -0.70009142
0.03810991 0.0091655888 -0.69980514
0.0393297 0.0092505207 -0.69955498
0.040715508 0.0094133485 -0.69939303
0.041919544 0.0094619626 -0.6991486
0.042936504 0.0094202105 -0.6988368
0.044174794 0.0094160875 -0.69867432
0.045150246 0.0094066001 -0.69832176
0.046367086 0.0093782665 -0.69820714
0.047393788 0.0093415715 -0.6979841
0.048387472 0.0093248729 -0.69775569
0.049387481 0.0093392897 -0.69754612
0.05037532 0.0093341032 -0.6973601
0.051306076 0.0093868468 -0.69698465
0.052354328 0.0094206063 -0.6970197
0.053523075 0.009399523 -0.69738156
0.054591451 0.0094652325 -0.69772214
0.055656143 0.0095200706 -0.698066
0.056853604 0.0095090074 -0.69878387
0.058072861 0.0094977506 -0.69956046
0.05928595 0.0094748139 -0.70042926
0.060351599 0.009568613 -0.7009536
0.061573293 0.0096014049 -0.70195198
0.062664345 0.0096858665 -0.70245355
0.063797258 0.0097716833 -0.70295817
0.065128498 0.0098171998 -0.70385879
0.066440359 0.009718297 -0.70448774
0.067660421 0.009756106 -0.70469904
0.069003657 0.0096417032 -0.70508027
0.070213743 0.0096054729 -0.7049523
0.071449898 0.0095734624 -0.70472825
0.072457187 0.0093025025 -0.70429158
0.073354818 0.0091556534 -0.70352435
0.074223615 0.0090361871 -0.70280796
0.075097084 0.0089385994 -0.70213443
0.075969145 0.0088497885 -0.70145661
0.076952323 0.0088034552 -0.70090955
0.077861823 0.0087425169 -0.7002967
0.079223432 0.008833806 -0.69989353
0.080219477 0.0087961173 -0.69933593
0.081483223 0.0088631678 -0.69891179
0.08253736 0.0088346805 -0.6984362
0.083748646 0.0088959159 -0.69802576
0.084810913 0.0088812187 -0.69759989
0.085985273 0.0089299632 -0.69721061
0.087062486 0.0089074327 -0.69683784
0.088244863 0.0089582531 -0.69650847
0.089391448 0.0090148011 -0.69620067
0.090452507 0.0090005687 -0.69585699
0.091568463 0.0090574743 -0.69555146
0.092610002 0.0090455767 -0.69521898
0.093651854 0.0090410439 -0.69492191
0.094754793 0.0090413988 -0.69471991
0.095745571 0.008993106 -0.69448262
0.096817166 0.0089421356 -0.69437104
0.097970918 0.0088520385 -0.69436002
0.09920118 0.008763005 -0.69429058
0.10049429 0.0086285621 -0.6944322
0.1018678 0.0084718568 -0.69482231
0.10322574 0.0083159134 -0.69528157
0.10459512 0.0081821745 -0.69604272
0.10586239 0.0080453847 -0.69637758
0.10713329 0.0079771122 -0.69679964
0.10839096 0.007920404 -0.69727004
0.10960423 0.0079276226 -0.69784653
0.1107889 0.0079722572 -0.69848382
0.11195205 0.0079432726 -0.69783837
0.11310124 0.0079913707 -0.69834834
0.11417662 0.0080553787 -0.69792271
0.11530171 0.0081136255 -0.69830304
0.11632437 0.0082269488 -0.69794714
0.11730687 0.0083598746 -0.69754803
0.11840017 0.0084696049 -0.69793272
0.11948108 0.0086069694 -0.69834727
0.12056886 0.0087008048 -0.69863617
0.12166312 0.0087758396 -0.69885391
0.12257346 0.0089723086 -0.69845557
0.12390278 0.0088136159 -0.6989544
0.1247952 0.0090544689 -0.69866914
0.12591329 0.00907782 -0.69872665
0.12703481 0.0090929521 -0.69876373
0.12791252 0.009368699 -0.69853753
0.12903082 0.009413234 -0.69866782
0.12989135 0.0097040171 -0.69841164
0.13072518 0.010015919 -0.6981805
0.13184501 0.010092802 -0.6984362
0.13296278 0.010152237 -0.69866008
0.1343828 0.0098587144 -0.69909865
0.13550557 0.0098999413 -0.69931501
0.13712905 0.0093620475 -0.69966197
0.13847345 0.0091550183 -0.69986337
0.14004461 0.0087201064 -0.70012575
0.14140081 0.0085167913 -0.70027566
0.14275876 0.0083136084 -0.70038897
0.14389206 0.008319919 -0.70037764
0.14525689 0.0080910921 -0.7004016
0.14638758 0.0080775153 -0.70032126
0.14730072 0.0082847737 -0.70016563
0.14843142 0.0082550449 -0.70003814
0.14957063 0.0082172463 -0.69989496
0.15047649 0.0084143132 -0.69972467
0.15136907 0.0086085601 -0.6995737
0.15225947 0.0088049248 -0.69942153
0.15314367 0.009007507 -0.69928479
0.15427309 0.0089716548 -0.6991514
0.15515551 0.0091827167 -0.6990152
0.15603986 0.0094057135 -0.69889873
0.15716934 0.0093815913 -0.69879586
0.15806334 0.0096162641 -0.69867843
0.15896609 0.009854041 -0.69856548
0.1601088 0.0098321205 -0.69846058
0.16124915 0.0098117655 -0.6983633
0.16238692 0.0097872028 -0.69825774
0.16352351 0.0097699109 -0.69818473
0.16465831 0.0097510852 -0.69811374
0.16579153 0.009735588 -0.6980629
0.16692112 0.0097330948 -0.69805366
0.16804732 0.0097365445 -0.69806457
0.16917664 0.00975003 -0.6981284
0.1703016 0.0097780274 -0.69824779
0.17162298 0.0095699625 -0.69847608
0.17295206 0.0093876561 -0.69879079
0.17408039 0.0094764354 -0.69911838
0.17543006 0.0093550719 -0.69963831
0.17655031 0.0094915042 -0.70014352
0.17790566 0.0094533926 -0.70095336
-0.050962314 0.00960417 -0.81896538
-0.049487326 0.0096143642 -0.81815928
-0.048508953 0.0095107416 -0.81762767
-0.047069881 0.0095091574 -0.81675923
-0.046580151 0.0093422886 -0.81640857
-0.045145769 0.0093497764 -0.81551415
-0.044617262 0.0092524327 -0.81511223
-0.043184545 0.0092662396 -0.81423652
-0.042212829 0.0092370566 -0.81356961
-0.041237701 0.009232658 -0.81287611
-0.040260531 0.0092114005 -0.81223279
-0.038890373 0.0092241373 -0.81130153
-0.037945751 0.0092021525 -0.81067109
-0.036630109 0.0092000039 -0.80975592
-0.035336129 0.0092212036 -0.8088088
-0.034047309 0.0092041465 -0.80789936
-0.032397795 0.0092086438 -0.80663681
-0.031165771 0.0091951173 -0.80562937
-0.029546065 0.0092053395 -0.8042087
-0.028364727 0.0092159985 -0.80314022
-0.026765935 0.0092386724 -0.80159897
-0.025129983 0.0092497086 -0.80004501
-0.022984214 0.0092419274 -0.79801267
-0.020800585 0.0091791851 -0.79590529
-0.018519739 0.0090048024 -0.79379666
-0.016638428 0.0088156378 -0.79226542
-0.013371356 0.008250217 -0.78971928
-0.010727147 0.00786692 -0.7874707
-0.0075757233 0.0075670327 -0.78426868
-0.0059516733 0.0076644304 -0.78210324
-0.0040854113 0.0078034382 -0.77888864
-0.003006865 0.008069573 -0.77640134
-0.0021706447 0.0083283847 -0.77387375
-0.0016438875 0.0085923197 -0.77131289
-0.0014198479 0.0087117897 -0.76980925
-0.0012388198 0.0088030882 -0.7683624
-0.0010938108 0.0088427933 -0.76694423
-0.00081546156 0.0088599194 -0.76461071
-0.00047728501 0.0088295583 -0.76231498
0.013120057 0.0092059337 -0.72878528
0.0072478354 0.0084529081 -0.71966636
0.0057200016 0.0079826526 -0.71106213
0.0085694045 0.0083941016 -0.7070834
0.010902855 0.0090134563 -0.70477766
0.012011676 0.0091098081 -0.70421678
0.013299621 0.0094282171 -0.70346302
0.014420682 0.0095396973 -0.70306969
0.015606432 0.0097333593 -0.70272583
0.016709056 0.0096678082 -0.70265746
0.017846229 0.0096287513 -0.70265269
0.018763445 0.0093782544 -0.70280123
0.019664841 0.0091233877 -0.7029233
0.020506494 0.0088890865 -0.70299727
0.021310963 0.0086733075 -0.70304054
0.022398027 0.0086382646 -0.70292348
0.023165971 0.0084383981 -0.70291418
0.023904486 0.008242568 -0.70284897
0.024645623 0.0080625927 -0.70279133
0.025707174 0.0080304462 -0.70260692
0.02645353 0.0078521594 -0.7025007
0.027561722 0.0078328522 -0.7023899
0.028712794 0.0078327311 -0.70235193
0.029848812 0.007817952 -0.70226699
0.030990442 0.0078082485 -0.70220387
0.03210799 0.0077801538 -0.70202607
0.033332873 0.0078368969 -0.70131814
0.034481671 0.0078259148 -0.70127565
0.035683863 0.0078994157 -0.70069271
0.036937945 0.0079911854 -0.7003805
0.038171951 0.0080784522 -0.70010602
0.03923225 0.008035562 -0.69977105
0.040611848 0.0082166074 -0.69958431
0.041780856 0.0082616908 -0.69924307
0.042999577 0.0082644485 -0.69900322
0.044019297 0.0082391025 -0.69868332
0.045060739 0.0082033016 -0.69841224
0.046252649 0.0081853904 -0.69822353
0.047266681 0.0081756515 -0.69795138
0.04827252 0.0081809601 -0.69770592
0.049257632 0.0082298992 -0.69738215
0.050276674 0.0082670776 -0.69720441
0.051294483 0.0082979873 -0.6971336
0.052430067 0.0082502803 -0.6973142
0.053500205 0.0083070658 -0.69760644
0.054569792 0.008341982 -0.69789189
0.055768609 0.0083276248 -0.69858879
0.056972701 0.0083475364 -0.69948226
0.058025692 0.0084332265 -0.69996524
0.059084591 0.0085250894 -0.70054585
0.060293701 0.0085434522 -0.70146507
0.061526496 0.0085653318 -0.70242262
0.062617369 0.0085976562 -0.70282292
0.063916482 0.0086273933 -0.70379454
0.065275744 0.0086786775 -0.70474827
0.066480517 0.0086688772 -0.70489347
0.067822836 0.0085633686 -0.7053898
0.069077335 0.008556826 -0.70536852
0.070357576 0.0083804987 -0.70541275
0.071471371 0.0082849888 -0.70498031
0.072454758 0.0081553087 -0.70426059
0.073352359 0.008032972 -0.70353353
0.074217319 0.0079307305 -0.70279294
0.075115457 0.0078585409 -0.70215446
0.075974286 0.0077854968 -0.70145965
0.076965451 0.0077702706 -0.70088667
0.078245662 0.0078212172 -0.7004177
0.079217225 0.0077925376 -0.69983411
0.080480866 0.0078482293 -0.69940263
0.08145386 0.0078308331 -0.69883251
0.082701623 0.00787469 -0.69844908
0.083760552 0.0078529064 -0.6979996
0.084789962 0.0078289425 -0.69752395
0.085974306 0.0078860484 -0.69714701
0.087050386 0.007868927 -0.69674319
0.088216856 0.0079131704 -0.69642657
0.089277476 0.0079054479 -0.6960448
0.090399995 0.0079560177 -0.69573516
0.091446891 0.0079507586 -0.69538867
0.092508093 0.0079710316 -0.69511092
0.093568094 0.0079662986 -0.69485575
0.094653577 0.0079539493 -0.69464749
0.095687293 0.0079672327 -0.69447732
0.096843459 0.0079098111 -0.69434315
0.098011486 0.0078379503 -0.69433862
0.099332161 0.0077334424 -0.69450033
0.10063953 0.0076141609 -0.69471866
0.10203008 0.0074344589 -0.69520992
0.10346021 0.0073191659 -0.6958763
0.10477183 0.0071891365 -0.69621092
0.10601873 0.007098251 -0.69657278
0.10729239 0.0069694761 -0.69699126
0.10853358 0.0069118114 -0.69743693
0.10971308 0.0069379471 -0.69799793
0.11092382 0.0069372552 -0.69847232
0.11210403 0.0069752829 -0.69894791
0.11318818 0.0070071067 -0.69856036
0.11432029 0.0070639341 -0.69898373
0.1153629 0.0071288752 -0.69856203
0.11634528 0.0072618192 -0.69827545
0.11745057 0.0073365541 -0.69862819
0.11839589 0.0074884142 -0.69825768
0.11946636 0.0076191379 -0.69867486
0.12055294 0.007707031 -0.69895464
0.12164196 0.0077859233 -0.69919384
0.1227506 0.0078319041 -0.69933426
0.12386624 0.00785546 -0.69939077
0.12475356 0.0080985306 -0.69912636
0.12587528 0.0081212334 -0.69919324
0.12699789 0.0081390748 -0.69924664
0.12787361 0.0084141539 -0.69902658
0.12873396 0.0086631561 -0.69866186
0.12956472 0.0089332294 -0.69829416
0.13067861 0.0090501104 -0.69862688
0.13180681 0.0091489004 -0.69897461
0.13294402 0.0091854967 -0.69919336
0.13437219 0.008885568 -0.69963318
0.13576403 0.0086044809 -0.69993514
0.13712075 0.0083716307 -0.70016044
0.13846143 0.008165678 -0.70037389
0.14002688 0.0077235675 -0.70063144
0.14160471 0.0072864736 -0.70086843
0.1427381 0.007299195 -0.70089191
0.14410014 0.0070718159 -0.70095176
0.14523639 0.0070625865 -0.70089263
0.1463718 0.0070430599 -0.70079106
0.14751066 0.0070086536 -0.70065993
0.14842519 0.0072075017 -0.70045811
0.14956599 0.0071668564 -0.70030653
0.15070702 0.0071257921 -0.70015794
0.15160523 0.0073246476 -0.69997782
0.15249844 0.0075196088 -0.69979924
0.15338536 0.0077190613 -0.69962984
0.15426646 0.0079234056 -0.69946426
0.15514676 0.008140319 -0.69932646
0.15627682 0.0081037292 -0.69918686
0.15715931 0.0083310362 -0.69905698
0.15804885 0.0085655088 -0.69891506
0.15894949 0.0088020936 -0.6987707
0.1600941 0.0087758005 -0.69864464
0.16123638 0.0087508615 -0.69853783
0.16215675 0.0089985849 -0.6984095
0.1632998 0.0089766886 -0.69831944
0.16443962 0.0089610182 -0.69825161
0.16557957 0.0089449827 -0.69818974
0.16671525 0.0089335702 -0.69815511
0.16785218 0.0089246761 -0.69815171
0.16898173 0.0089329323 -0.69819438
0.17030497 0.0086947056 -0.69835287
0.1714211 0.0087419292 -0.69853383
0.17274642 0.0085519496 -0.69884396
0.17386182 0.0086377356 -0.6991685
0.17542602 0.0082920985 -0.69982922
0.17653595 0.0084425882 -0.70037496
0.17789018 0.0084004998 -0.70118862
-0.048605971 0.0086455671 -0.81841683
-0.047667444 0.0084803505 -0.81789452
-0.046693288 0.0083451383 -0.81736583
-0.045727607 0.0082214409 -0.81679708
-0.044773199 0.0081150802 -0.8161875
-0.043809574 0.0080285454 -0.81556267
-0.042847306 0.0079510603 -0.81492513
-0.041883852 0.0078885062 -0.81426811
-0.040935218 0.0078443801 -0.81357908
-0.039564122 0.0078496495 -0.81265056
-0.038621843 0.0078064804 -0.81197107
-0.037712514 0.0077666831 -0.81124836
-0.035997789 0.0078292275 -0.81002861
-0.034728575 0.0078317672 -0.80902714
-0.033910375 0.0077900635 -0.80831009
-0.032270811 0.0078135002 -0.80697161
-0.031085785 0.007813192 -0.805888
-0.029495487 0.0078320671 -0.80439669
-0.0283591 0.0078377305 -0.80327368
-0.026804328 0.0078872135 -0.80165792
-0.025242247 0.0079258 -0.79999113
-0.023135535 0.007940446 -0.79789394
-0.020988984 0.0079065636 -0.79572427
-0.018800031 0.0077896235 -0.79351109
-0.015672609 0.0073759761 -0.79097241
-0.013061404 0.006956303 -0.78883731
-0.01047964 0.0066074841 -0.78653806
-0.007409812 0.006353545 -0.78327107
-0.0052969856 0.0063960198 -0.78024638
-0.0039685015 0.0066179396 -0.77790099
-0.0029355246 0.0068523227 -0.77544653
-0.0018069748 0.0071973046 -0.77192962
-0.001498103 0.0073570251 -0.77040017
-0.001247866 0.0074650436 -0.76892954
-0.0010434304 0.0075502358 -0.76746005
-0.00071650045 0.0076206541 -0.76510477
-0.00055885845 0.0076232078 -0.7637192
-0.00013600873 0.0076019047 -0.76143646
0.011687669 0.0078448886 -0.72460991
0.0062596225 0.0070126043 -0.71570843
0.0074183778 0.006911587 -0.70953059
0.010273038 0.0076053743 -0.70632493
0.011698514 0.0078522349 -0.70531934
0.01310225 0.0081699686 -0.70450896
0.014264288 0.0082953246 -0.70404518
0.015397011 0.0084266346 -0.70365703
0.016690617 0.0085972203 -0.70335186
0.017780961 0.0085371817 -0.7032935
0.018926648 0.0084924316 -0.70326006
0.019856133 0.008187186 -0.70338023
0.02068492 0.0079333792 -0.70347112
0.021497345 0.007695138 -0.70352215
0.022271743 0.0074605565 -0.70350116
0.023023633 0.0072432472 -0.70345497
0.024095586 0.0072108721 -0.70333523
0.02483768 0.0070179175 -0.70327443
0.025569273 0.0068237539 -0.70316005
0.026637662 0.0067945598 -0.70297909
0.027733207 0.006775971 -0.70285976
0.028853405 0.0067587281 -0.7027514
0.029990837 0.006755095 -0.70270824
0.03113886 0.0067568193 -0.70268494
0.032238249 0.0067193783 -0.70248604
0.033350892 0.0066841757 -0.70228332
0.034460936 0.0066519012 -0.70206696
0.03563999 0.0067178803 -0.70134121
0.036842126 0.0067794262 -0.70072263
0.038076434 0.0068681594 -0.70039755
0.039290056 0.0069452538 -0.70006448
0.040346842 0.0069020055 -0.69969636
0.041535098 0.0069658416 -0.69934958
0.042715304 0.0070110532 -0.69901329
0.04390062 0.0070373742 -0.69872189
0.04509731 0.0070374925 -0.69845986
0.046124864 0.007028921 -0.69817746
0.047117088 0.0070247459 -0.69779307
0.048134957 0.0070425123 -0.69746852
0.049193449 0.0070529669 -0.69728559
0.050262868 0.0070814351 -0.69726598
0.051339678 0.0071067833 -0.69732654
0.052411783 0.0071623973 -0.69756502
0.053608447 0.0071099312 -0.6980561
0.054817472 0.0070727607 -0.69875634
0.055873532 0.0071781464 -0.69928354
0.057080816 0.0071935188 -0.70022738
0.058129709 0.0072889612 -0.70074385
0.059330244 0.0073340279 -0.70180994
0.060396452 0.0074205585 -0.70233351
0.061627377 0.0074479925 -0.7033534
0.062747627 0.0075051314 -0.70380783
0.064060047 0.0075553507 -0.70480359
0.065459497 0.0075712292 -0.7056765
0.066664375 0.0075251837 -0.70572716
0.068054035 0.0074413763 -0.70618093
0.069222316 0.0073298155 -0.70592928
0.070436478 0.0072621848 -0.70559812
0.07151442 0.007145389 -0.70502287
0.072459891 0.0070170849 -0.70427525
0.073348872 0.0069131153 -0.70352173
0.074207857 0.0068316706 -0.70277703
0.075095557 0.0067742923 -0.70210153
0.075961046 0.0067062178 -0.70141351
0.0769509 0.0066970964 -0.70084584
0.078239202 0.006750966 -0.70037878
0.079224601 0.0067297039 -0.69980705
0.080208175 0.0067334939 -0.69921857
0.081455253 0.0067643537 -0.69879895
0.0825544 0.0067831716 -0.6983552
0.083743669 0.0068064104 -0.69793183
0.084915288 0.0068423436 -0.69752681
0.085952237 0.0068336134 -0.69706666
0.087012343 0.0068510263 -0.69663131
0.08821179 0.0068720886 -0.69635165
0.089215979 0.0068963584 -0.69591945
0.090287156 0.0069160815 -0.69558704
0.091355816 0.0069424668 -0.69530839
0.092495397 0.0069245682 -0.69505602
0.093474515 0.0069759306 -0.69482708
0.094595917 0.0069535095 -0.69463915
0.095706902 0.0069152238 -0.6944716
0.096894287 0.006882723 -0.69446927
0.098069698 0.0067881327 -0.69433063
0.099404797 0.0066845641 -0.69450253
0.10074791 0.0065649468 -0.69475949
0.10211027 0.0064320462 -0.69521385
0.10360246 0.0063012224 -0.69597888
0.10491202 0.0061855321 -0.69632387
0.10625661 0.0061399834 -0.69748962
0.10747726 0.006067818 -0.69806135
0.10865553 0.0059314785 -0.69754279
0.10982876 0.0059287483 -0.69811994
0.11102977 0.0059336941 -0.69858998
0.11218047 0.0059982212 -0.6991331
0.11325416 0.0060015828 -0.69873214
0.11438429 0.0060664271 -0.69914973
0.1153972 0.0061290227 -0.69879889
0.11648501 0.0062314318 -0.69927359
0.11745894 0.0063448539 -0.69890052
0.11852978 0.0064529544 -0.69931108
0.11945755 0.0065944241 -0.6989122
0.12053215 0.006690722 -0.69922423
0.12161778 0.0067796311 -0.69950867
0.12272055 0.0068341042 -0.69968206
0.1238355 0.0068629654 -0.69976783
0.12472044 0.0070880428 -0.6994729
0.12583856 0.0071473159 -0.69965518
0.12696707 0.0071577406 -0.69969672
0.12784278 0.0074245497 -0.69946337
0.12869397 0.0076580313 -0.69905216
0.12950008 0.0079235733 -0.69866717
0.13062093 0.0080232164 -0.69897217
0.13178013 0.0081366394 -0.69938606
0.13324295 0.007858268 -0.69998252
0.13437517 0.0078839222 -0.70015872
0.13576864 0.0075949766 -0.7004078
0.13711502 0.007372384 -0.70064545
0.13845222 0.0071679675 -0.70086008
0.14001326 0.0067284792 -0.70113689
0.14158501 0.0062829 -0.70135534
0.14294235 0.006056245 -0.70145082
0.14408338 0.0060500833 -0.70143068
0.14544082 0.0058018109 -0.70143425
0.1463607 0.0060169469 -0.70127267
0.14749743 0.0059761121 -0.70111918
0.14864247 0.0059323311 -0.70094764
0.14955862 0.0061339554 -0.70074892
0.15070258 0.0060834535 -0.70056921
0.15160203 0.0062773689 -0.7003715
0.15249194 0.0064791711 -0.70017862
0.15337518 0.0066847354 -0.70000315
0.15425667 0.0068887211 -0.69981754
0.15538871 0.0068435138 -0.69965202
0.15626697 0.0070592701 -0.69948208
0.1571462 0.0072875982 -0.6993382
0.15803465 0.0075155701 -0.69917381
0.15893111 0.0077531957 -0.69901735
0.16007702 0.0077230697 -0.69886684
0.16099408 0.0079649705 -0.69872046
0.16214398 0.0079387436 -0.69860321
0.1632895 0.0079121301 -0.69847697
0.16442835 0.0078905597 -0.69837803
0.16557118 0.0078704273 -0.69830048
0.16671079 0.0078553297 -0.69825834
0.16785088 0.0078432076 -0.69824547
0.16898231 0.0078491401 -0.69829112
0.17030287 0.0076128417 -0.69844735
0.17141733 0.007663127 -0.69864023
0.17273706 0.0074903811 -0.69898295
0.17407453 0.0073305452 -0.69941324
0.17542376 0.0072204228 -0.70000249
0.17652667 0.0073760771 -0.70054889
-0.047266133 0.0074194171 -0.81844312
-0.046295013 0.0072391732 -0.81795037
-0.045331772 0.0070875064 -0.81741393
-0.043918349 0.0070718578 -0.8165077
-0.042968702 0.006938397 -0.81592095
-0.042014912 0.0068200575 -0.81531447
-0.041518196 0.0066088354 -0.81498444
-0.040586304 0.0065195225 -0.81431031
-0.039231114 0.0065309042 -0.81332344
-0.037896957 0.0065385755 -0.81232005
-0.037013907 0.0064739222 -0.81160212
-0.035735853 0.006462764 -0.81061172
-0.034486935 0.0064634592 -0.80955064
-0.033279847 0.0064636255 -0.80843765
-0.032107119 0.0064565609 -0.80731571
-0.030976884 0.006449515 -0.80619639
-0.029411776 0.0065055434 -0.80461651
-0.02833705 0.0064854859 -0.80340523
-0.026784126 0.0065342379 -0.80179513
-0.025291495 0.0065966658 -0.80002183
-0.023241542 0.0066391239 -0.79782826
-0.021162495 0.006631521 -0.79556507
-0.019003274 0.0065500648 -0.7933104
-0.015991351 0.006200654 -0.79065466
-0.012832172 0.0056738392 -0.78792685
-0.010275804 0.0053804526 -0.7856155
-0.0072593628 0.0051005404 -0.78229159
-0.0051932554 0.0051522534 -0.77926332
-0.0038624029 0.0053775967 -0.77689755
-0.002434042 0.0056710807 -0.77353239
-0.0016935722 0.0059421072 -0.77099782
-0.0013448667 0.0060771191 -0.76948804
-0.0010902061 0.0061982293 -0.76800597
-0.00043743371 0.0063837692 -0.76468563
-0.00043870744 0.0063665817 -0.76422822
-3.2247053e-06 0.0064005577 -0.76191086
0.00052802701 0.0063944859 -0.75968367
0.0049601295 0.006380952 -0.75121272
0.010089766 0.0063400464 -0.74584037
0.013869169 0.006918807 -0.72881371
0.011212545 0.0065427506 -0.72244292
0.009303079 0.0060234503 -0.70851177
0.01117614 0.0063944981 -0.70693135
0.012860832 0.006866795 -0.70564133
0.014284775 0.0071938373 -0.70484126
0.015476501 0.007348204 -0.70446414
0.016702609 0.0074781398 -0.70410347
0.017793456 0.0074246768 -0.70401758
0.018924078 0.0073374091 -0.70398623
0.019787014 0.0070568668 -0.70408064
0.020628486 0.0067697293 -0.70412493
0.021425596 0.006506043 -0.70411384
0.022168387 0.0062718564 -0.70407826
0.022902446 0.0060484973 -0.70404482
0.023618614 0.0058379523 -0.70397198
0.024683088 0.0058051464 -0.70380211
0.025462225 0.0056314366 -0.70384574
0.026632395 0.0056422562 -0.70389527
0.02758106 0.0055367053 -0.70433247
0.028719615 0.0055191144 -0.70425928
0.029835446 0.005495776 -0.70411259
0.031088065 0.0055723204 -0.70343602
0.032213468 0.0055482797 -0.70329916
0.033363562 0.0055307983 -0.70321417
0.034548175 0.0055930386 -0.70245564
0.035660919 0.0055668019 -0.70228034
0.036809418 0.0056060278 -0.70139843
0.037900127 0.0055640177 -0.70106554
0.039191697 0.0057370816 -0.70031077
0.040389303 0.0058024088 -0.69992602
0.04143909 0.0057570939 -0.69948924
0.042620219 0.0058133514 -0.69912863
0.043799236 0.0058473386 -0.69879311
0.044958718 0.0058662407 -0.69842041
0.045975905 0.0058621713 -0.69801748
0.047016598 0.0058470778 -0.6976099
0.048124902 0.0059096441 -0.69741398
0.049192287 0.0059299543 -0.69733536
0.05026589 0.0059495578 -0.69736165
0.051418155 0.0059099216 -0.69771188
0.052505333 0.0059623821 -0.69797772
0.053720538 0.0059014019 -0.69855636
0.054784123 0.0059982901 -0.6990543
0.055828478 0.0061027501 -0.69966805
0.057035904 0.0061121793 -0.70056522
0.058212005 0.0061566313 -0.70164812
0.059270184 0.0062622507 -0.70227301
0.060343895 0.0063677179 -0.70286411
0.061587919 0.0063984757 -0.70389503
0.06287346 0.0064199399 -0.70486134
0.064234309 0.0064804461 -0.7058478
0.065618195 0.0064331661 -0.70655
0.066908561 0.0064340383 -0.70663035
0.068224169 0.0062257485 -0.7067951
0.069421552 0.0061302301 -0.70640558
0.070063531 0.0057529276 -0.70538741
0.070774384 0.0056286203 -0.70448238
0.072064541 0.0057149823 -0.70396477
0.073332913 0.0057836697 -0.70349705
0.074194051 0.0057201847 -0.70274943
0.07508447 0.0056704502 -0.70207888
0.075999938 0.0056605162 -0.70140833
0.07690616 0.0056422562 -0.70075744
0.077903792 0.005639012 -0.7002117
0.079187125 0.0056815934 -0.69971943
0.080188058 0.0056917453 -0.69918132
0.081476815 0.005726275 -0.69877154
0.082543887 0.0057605496 -0.69830549
0.083724357 0.0057725841 -0.69786471
0.08488521 0.0057910443 -0.69742626
0.085938923 0.0058081741 -0.6969803
0.087007403 0.0058497968 -0.69656461
0.088025972 0.0058848071 -0.69615227
0.089182846 0.0058772634 -0.69583255
0.09024851 0.0059095197 -0.69552499
0.091348164 0.0059244693 -0.6952607
0.092410102 0.0059375344 -0.69498718
0.093487486 0.0059386529 -0.69479752
0.094639592 0.0058981976 -0.69461113
0.0957167 0.0059424075 -0.69452494
0.09695217 0.0058467174 -0.6944533
0.098189689 0.0057571745 -0.69447696
0.099562682 0.0056715058 -0.69477981
0.10088615 0.0055293809 -0.69479901
0.10228375 0.0054038861 -0.69534206
0.10373336 0.0053134668 -0.69614941
0.10503575 0.0051766899 -0.69647133
0.1064049 0.0051734289 -0.69765818
0.10761124 0.0050944071 -0.69820249
0.1087789 0.0049636732 -0.69775105
0.10993177 0.0049707564 -0.69830704
0.11110373 0.0049850824 -0.69884425
0.11224972 0.0050019072 -0.69932848
0.11339528 0.0050266273 -0.69971967
0.11442027 0.0050704661 -0.69940466
0.11541615 0.0051258705 -0.69906873
0.11636708 0.0052571264 -0.69881999
0.11744808 0.0053462922 -0.69922549
0.11852244 0.0054346761 -0.69958043
0.11943115 0.0055739433 -0.69918835
0.12051444 0.0056419601 -0.69942695
0.12159373 0.005734928 -0.69974786
0.12269551 0.0057927086 -0.69994038
0.12380459 0.005850947 -0.70013833
0.12469306 0.0060169399 -0.69968069
0.12581061 0.0061006369 -0.69996226
0.12667038 0.0063029439 -0.69952422
0.12780963 0.0063909665 -0.6998474
0.12864229 0.0066109654 -0.69937402
0.12942445 0.006936016 -0.69910723
0.13057593 0.0069877808 -0.69932461
0.13210799 0.0068150004 -0.7002911
0.1332414 0.0068363762 -0.70045632
0.13463946 0.0065422938 -0.70071989
0.13598491 0.0063246326 -0.7009517
0.13732044 0.0061272513 -0.70118964
0.13866031 0.0059279669 -0.70141369
0.14022081 0.0054922588 -0.7016874
0.14157325 0.0052728937 -0.70180678
0.14292945 0.0050488552 -0.70191878
0.1440672 0.0050412454 -0.70188719
0.14543112 0.0047796275 -0.70190543
0.14657402 0.0047413567 -0.70176888
0.14771646 0.0047033336 -0.70163429
0.14863929 0.004899662 -0.7013967
0.14978674 0.0048457123 -0.70120502
0.15069537 0.0050431746 -0.70097631
0.15183993 0.0049894932 -0.70079714
0.15273115 0.0051963511 -0.70059514
0.153365 0.0056521068 -0.70037371
0.15424395 0.0058597974 -0.70018464
0.15537782 0.0058105476 -0.700001
0.15625489 0.0060230163 -0.69980627
0.15713236 0.0062482357 -0.69963562
0.15801758 0.006470548 -0.69945103
0.15890893 0.0067055486 -0.69926602
0.16005866 0.0066711963 -0.69910383
0.16097233 0.0069088708 -0.69892716
0.16212159 0.0068808636 -0.69878185
0.16326994 0.006850393 -0.69864506
0.16419573 0.0070976121 -0.69848508
0.16535023 0.0070670331 -0.69838512
0.16649869 0.0070452634 -0.69831985
0.16764258 0.0070317807 -0.69830686
0.1689754 0.0067716092 -0.69839132
0.1702906 0.0065409495 -0.6985634
0.17140529 0.0065912763 -0.69875729
0.17295037 0.0061557349 -0.69920999
0.17406705 0.0062578232 -0.69956672
0.17541185 0.0061604907 -0.70019066
0.17676994 0.0060915234 -0.70093375
0.1778447 0.0062881191 -0.70159572
0.17917404 0.0062898672 -0.70258099
-0.045451701 0.0063508144 -0.81811661
-0.044451207 0.0061669899 -0.81765634
-0.043503031 0.0059746788 -0.81710738
-0.042575877 0.0058034514 -0.81651425
-0.041639671 0.0056479108 -0.81591201
-0.040702302 0.0055135232 -0.81530505
-0.039787583 0.0053862715 -0.81465048
-0.038873818 0.0052759568 -0.814004
-0.037551552 0.0052718623 -0.81296921
-0.036688026 0.0051720375 -0.81224161
-0.035437312 0.0051625748 -0.81118006
-0.034190487 0.0051438897 -0.81011009
-0.033433124 0.0050595882 -0.80934185
-0.031881321 0.0051259259 -0.80776471
-0.030791752 0.0051214434 -0.80653524
-0.029294917 0.0051610153 -0.80485654
-0.028262736 0.0051775128 -0.80359244
-0.026773462 0.0052083801 -0.80188161
-0.025759205 0.0052477801 -0.80058366
-0.023851516 0.0053181895 -0.79827714
-0.021808114 0.0053577661 -0.79599637
-0.019166123 0.0052911667 -0.79316038
-0.016266432 0.0050200708 -0.79039246
-0.013183265 0.0045602364 -0.78760821
-0.010024622 0.004102177 -0.7846396
-0.0076576234 0.0038997128 -0.78206533
-0.0050150547 0.0039097467 -0.77825642
-0.0037557161 0.0041181273 -0.77595049
-0.0023223136 0.0044032116 -0.77257717
-0.0015126059 0.0046730815 -0.77009046
-0.00092745962 0.0048996271 -0.76762527
-0.00062704924 0.0049989023 -0.7661472
-0.00016153738 0.0051201093 -0.76377434
3.4723013e-05 0.0051560872 -0.76239514
0.00036747046 0.0051678936 -0.76106274
0.00095284294 0.0051667187 -0.75884634
0.0017692152 0.005161169 -0.75673062
0.0031569684 0.0051681232 -0.75385231
0.0057070591 0.0050998381 -0.75052488
0.0093757249 0.0050200457 -0.74673003
0.010821268 0.0050943624 -0.70822072
0.012608473 0.0055395844 -0.7068373
0.014070261 0.00585153 -0.70600498
0.015539709 0.0061889198 -0.70527375
0.016767863 0.0063143601 -0.70489883
0.017855139 0.0062485533 -0.70480442
0.018916653 0.0061954865 -0.70472819
0.019796019 0.005878713 -0.70479143
0.020585995 0.0055964869 -0.70479953
0.021341395 0.0053297793 -0.7047655
0.022077026 0.0050781979 -0.70474219
0.022787463 0.0048520681 -0.70467842
0.023487573 0.0046316767 -0.70458716
0.02433357 0.0044835666 -0.70483327
0.025506789 0.0044993605 -0.70490265
0.026438957 0.0043876618 -0.70535338
0.027579628 0.0043777335 -0.70531553
0.028719842 0.0043634828 -0.70522583
0.029852675 0.0043435046 -0.70511895
0.031117747 0.0044348403 -0.70447934
0.03224678 0.0044139335 -0.70433474
0.033371974 0.0043777502 -0.7041657
0.034497067 0.0043321867 -0.70393103
0.0356699 0.0044056368 -0.70316166
0.036802359 0.004451836 -0.702245
0.037907019 0.0044023907 -0.70192248
0.039036073 0.0044430476 -0.70101076
0.04017001 0.0044794814 -0.70013374
0.041349225 0.0045513036 -0.69962943
0.04252227 0.0046093785 -0.69917744
0.04367134 0.0046491176 -0.69866353
0.044767275 0.0045711747 -0.69813585
0.045893371 0.0046504238 -0.697824
0.04701715 0.0046206131 -0.69764578
0.048108898 0.0047248937 -0.69750834
0.049210574 0.00473302 -0.69750744
0.050311793 0.0047611305 -0.69767153
0.051521517 0.0046871854 -0.6980952
0.052613765 0.0047528096 -0.69844472
0.053823233 0.0047332118 -0.69927347
0.054753948 0.0049085268 -0.69936281
0.055933665 0.0049543669 -0.70042014
0.057110727 0.0050381781 -0.7016328
0.058159687 0.0051356596 -0.70220453
0.059216462 0.0051942472 -0.70276058
0.060450561 0.0052848747 -0.70392185
0.061695889 0.0053283079 -0.70494026
0.063017309 0.0053450931 -0.70593309
0.064421691 0.0053757057 -0.70685571
0.065820366 0.0052892128 -0.70746046
0.06728182 0.0051756874 -0.70784473
0.068155617 0.0047429143 -0.70706218
0.068806857 0.0045497282 -0.70600873
0.07011047 0.0046453695 -0.70551413
0.070076942 0.0043728068 -0.70423943
0.072083972 0.0046010576 -0.70403355
0.072887234 0.0045346092 -0.70326114
0.073748305 0.0045210938 -0.70255357
0.075059786 0.0045730756 -0.70205575
0.07595291 0.004568717 -0.70137429
0.076900952 0.0045790989 -0.70073897
0.077866606 0.0045943479 -0.70016217
0.078935839 0.0046350909 -0.6996302
0.080203086 0.0046570366 -0.69914705
0.081456907 0.0046891742 -0.6987136
0.082528085 0.0047189104 -0.69824314
0.083691627 0.004750479 -0.69775051
0.084720924 0.0047946498 -0.69725478
0.085897721 0.0047944775 -0.69688231
0.08697699 0.0048300875 -0.69650537
0.087980799 0.0048766686 -0.69607067
0.089085154 0.0049394271 -0.69575846
0.09024404 0.0048757293 -0.69549185
0.091327168 0.0048979144 -0.6952278
0.092398435 0.0048999428 -0.69496226
0.093502976 0.0048961812 -0.69479156
0.094660953 0.0048500528 -0.6946069
0.095782354 0.004874811 -0.69451863
0.097032182 0.0047842367 -0.69444364
0.09827999 0.0047204504 -0.69447422
0.099667639 0.0046365992 -0.69477713
0.10097073 0.004463227 -0.69483483
0.10237792 0.0043984023 -0.69537419
0.10383936 0.0042708572 -0.69611734
0.10513522 0.0041532167 -0.69651937
0.10651565 0.0041760923 -0.69781995
0.10772949 0.0041273115 -0.69838232
0.10886968 0.0039994083 -0.69803768
0.11001819 0.0039800741 -0.69856644
0.11116272 0.0039674742 -0.69900733
0.11231175 0.0040014405 -0.69948983
0.11335084 0.0040009907 -0.69917464
0.11444062 0.0040634726 -0.69964063
0.11543647 0.004117656 -0.69929826
0.11636487 0.004236246 -0.69907814
0.11743775 0.0043083588 -0.69942135
0.11833526 0.0044372361 -0.69908059
0.11940932 0.0045176949 -0.69938296
0.12048602 0.0045922161 -0.6996612
0.12157707 0.0046529719 -0.69988728
0.12267537 0.004715364 -0.70012105
0.12378326 0.0047796159 -0.70035988
0.1246587 0.0049439119 -0.69992965
0.12578398 0.0050141681 -0.70018607
0.12691346 0.0050888387 -0.70045459
0.1277722 0.005311308 -0.70012391
0.12857695 0.005572848 -0.69976223
0.1297645 0.0056395358 -0.7000832
0.13093759 0.0056953309 -0.70041013
0.13236502 0.0054507395 -0.70085168
0.13350834 0.0054673208 -0.70099187
0.13485338 0.0052590971 -0.70122552
0.13618872 0.005066169 -0.7014659
0.13731383 0.0051047313 -0.70161808
0.13865319 0.0049067889 -0.70183766
0.14021172 0.0044741412 -0.70210773
0.1415626 0.0042637144 -0.70226389
0.14291924 0.0040380447 -0.70238692
0.14428654 0.0037871366 -0.70244133
0.14542794 0.0037582307 -0.70234597
0.14656842 0.0037323968 -0.70224011
0.14771789 0.0036763705 -0.70207554
0.14886883 0.0036158198 -0.7018857
0.14977826 0.0038261581 -0.70165342
0.15092668 0.0037569136 -0.70143646
0.15183456 0.0039603137 -0.70120341
0.15272191 0.0041667772 -0.70099521
0.15360664 0.0043716282 -0.70078856
0.15422854 0.004838299 -0.70057899
0.15536407 0.0047821789 -0.70036501
0.15623896 0.0049956744 -0.70016283
0.15711689 0.0052103056 -0.69995672
0.15799648 0.0054325988 -0.69975179
0.15888485 0.005658058 -0.6995362
0.16003358 0.0056187506 -0.69935596
0.16094442 0.005853327 -0.69914889
0.16209556 0.0058240122 -0.69899309
0.16302715 0.0060554398 -0.6987946
0.16418508 0.0060231662 -0.69864821
0.16534284 0.0059904144 -0.69853657
0.16649288 0.0059624817 -0.69844192
0.16763684 0.0059462884 -0.69840562
0.16895925 0.0056974143 -0.69849479
0.1702809 0.005464253 -0.69867635
0.17139053 0.0055193859 -0.69886667
0.17294201 0.0050806808 -0.6993469
0.17404975 0.0051911208 -0.69971156
0.17539729 0.0050867302 -0.70033455
0.17674428 0.0050298697 -0.70110828
0.17809749 0.004994412 -0.70196277
-0.044079516 0.0051196697 -0.81808293
-0.043125242 0.0048988378 -0.81759518
-0.04217067 0.0047079688 -0.81707525
-0.041241098 0.0045259171 -0.81649089
-0.040301997 0.004367182 -0.81590801
-0.039386358 0.0042080949 -0.8152948
-0.038486809 0.004062389 -0.81465441
-0.037594669 0.0039260886 -0.8140009
-0.035878386 0.0040358109 -0.81252372
-0.035072487 0.0039076651 -0.81179678
-0.033866271 0.0038803795 -0.81065142
-0.033140253 0.0037724453 -0.80987662
-0.032033075 0.0037608291 -0.80867249
-0.030964883 0.0037470257 -0.80743742
-0.029958699 0.0037145519 -0.80617136
-0.028577507 0.0037813548 -0.8043409
-0.027165763 0.0038340394 -0.8025701
-0.025748821 0.0039112777 -0.80070466
-0.023888502 0.0040065115 -0.79829162
-0.021935657 0.0040698415 -0.79590768
-0.019875314 0.0040623285 -0.79357368
-0.016554134 0.0038195238 -0.79012495
-0.013502688 0.0034311111 -0.78731197
-0.010376551 0.0029543026 -0.78440762
-0.0080300607 0.0027113957 -0.78179556
-0.0053282981 0.0027175655 -0.7781564
-0.0035503083 0.0028404656 -0.77498776
-0.0021192927 0.00312194 -0.77168417
-0.0013499655 0.0033987649 -0.7692104
-0.00070496125 0.0036025727 -0.76673341
-0.00014392717 0.0037844535 -0.76434475
0.0001100479 0.0038652429 -0.76291853
0.00072237029 0.0039414149 -0.76062131
0.0010224935 0.0039497185 -0.75931466
0.0017910742 0.0039752582 -0.75717682
0.0023177608 0.0039438065 -0.75594068
0.0039047662 0.0039128386 -0.7531184
0.0058554816 0.0038646057 -0.75051439
0.0093633635 0.0037040438 -0.74661398
0.010325322 0.0040593464 -0.72007167
0.008566238 0.0034648336 -0.71252751
0.010175868 0.0036348794 -0.71008933
0.012357861 0.0042154645 -0.70807093
0.013838198 0.0044931001 -0.70711815
0.015308657 0.0048267329 -0.70636988
0.016563639 0.0049513336 -0.70594519
0.017875092 0.0051246854 -0.70561105
0.018962296 0.0050083282 -0.70548254
0.019769244 0.0046952395 -0.7054922
0.02052686 0.0044170632 -0.7054863
0.020943362 0.0039494499 -0.70561856
0.02197798 0.0038938548 -0.70540994
0.022681864 0.0036578458 -0.70534843
0.023426484 0.0034539972 -0.70538688
0.024363266 0.0033443149 -0.70586056
0.025521576 0.0033536905 -0.70589525
0.026444808 0.0032275766 -0.70633554
0.027585546 0.0032207891 -0.70630443
0.028707115 0.0032055357 -0.70618701
0.02984806 0.0031774011 -0.70607483
0.030953741 0.0031414721 -0.70586663
0.03216901 0.0031222524 -0.70590103
0.033392467 0.0029510926 -0.70570207
0.034572627 0.0031160265 -0.70495313
0.035781592 0.0028692833 -0.70455992
0.036895201 0.0030559665 -0.7037465
0.037988838 0.0031681261 -0.70284778
0.03909203 0.0032349001 -0.70181984
0.040172052 0.0032614316 -0.70066255
0.041318011 0.0032719409 -0.69966704
0.042494893 0.0033036224 -0.69903392
0.043645494 0.003376794 -0.69856316
0.044844199 0.0032790753 -0.69827902
0.045936614 0.0034134637 -0.69804913
0.04702428 0.0035235782 -0.6978218
0.048155669 0.0035130535 -0.69777191
0.049211536 0.003613458 -0.69761413
0.050400343 0.0035578043 -0.69807786
0.051506121 0.0035949072 -0.69830436
0.052593209 0.0036518287 -0.69865024
0.0537869 0.0036625981 -0.69960302
0.054844566 0.0037651735 -0.7001785
0.056023765 0.0038140579 -0.70128345
0.057061657 0.0039370647 -0.70197552
0.058252968 0.0039947485 -0.70309734
0.059434518 0.0041190442 -0.70444363
0.060540874 0.0041687377 -0.70495027
0.061818209 0.0042251805 -0.706043
0.066958331 0.0035374346 -0.70769966
0.067467034 0.0033420397 -0.70657885
0.067113303 0.003200287 -0.70545924
0.068706468 0.0032479472 -0.70487696
0.069415621 0.0032247137 -0.70427829
0.070249282 0.0032932723 -0.70355815
0.071813188 0.0033289008 -0.70298892
0.072696693 0.0033539557 -0.70237786
0.074626692 0.0034388984 -0.70189524
0.075599141 0.0034882424 -0.70127153
0.07652346 0.0035324383 -0.70063055
0.077884123 0.0035401755 -0.70016921
0.078903005 0.0036148904 -0.69959891
0.080227189 0.0036383264 -0.69914824
0.081454605 0.0036361574 -0.69870734
0.082464255 0.0037199121 -0.69812143
0.083660096 0.0037018619 -0.69768864
0.084685192 0.0037643022 -0.69720238
0.08588817 0.0037410057 -0.69685441
0.086948439 0.0038106348 -0.69644421
0.087980345 0.0038606781 -0.69604045
0.089062229 0.0039015501 -0.69573486
0.090247504 0.003824336 -0.69547957
0.091223605 0.0039891368 -0.69519681
0.092410073 0.0038626385 -0.69496077
0.09354125 0.0038368339 -0.69475633
0.094706945 0.0038073636 -0.6945973
0.095858119 0.0038265344 -0.69450295
0.097100005 0.0037551671 -0.69444448
0.098356232 0.0036908358 -0.69446295
0.099730112 0.0035767041 -0.69474369
0.1010932 0.0034368271 -0.69491446
0.10249078 0.0033808418 -0.69548869
0.10395426 0.003272983 -0.69626349
0.10524345 0.0031649673 -0.69664627
0.10661741 0.0032022377 -0.6980409
0.10780385 0.0031608853 -0.69861853
0.10895978 0.003004197 -0.69818771
0.11008485 0.0029778657 -0.69873321
0.11121068 0.0029935837 -0.69926935
0.11235445 0.0029937457 -0.69965011
0.1133642 0.0029999183 -0.69940263
0.11446559 0.0030452982 -0.69980526
0.11543287 0.003096553 -0.69953114
0.11635327 0.0031953943 -0.69930184
0.11723121 0.0033164998 -0.69899964
0.11829306 0.0034049249 -0.69938123
0.11936723 0.0034703063 -0.69964647
0.12045262 0.0035290383 -0.69988835
0.12155424 0.0035688423 -0.70005465
0.12238244 0.0037595734 -0.69978201
0.12349913 0.0038017565 -0.6999504
0.12463075 0.0038464754 -0.70014316
0.12545229 0.0040787496 -0.6998319
0.12689701 0.0039585647 -0.70061731
0.12804033 0.0040191337 -0.70085829
0.12891011 0.0042518931 -0.70064223
0.13007395 0.0043119141 -0.7009365
0.13122724 0.0043383371 -0.70110154
0.13258646 0.0041248207 -0.70129913
0.13371709 0.0041677342 -0.70145506
0.13505493 0.0039841724 -0.70170009
0.13618161 0.004028447 -0.70186281
0.13752094 0.0038400176 -0.70210528
0.13885981 0.0036465968 -0.70231849
0.14042076 0.003224568 -0.70260155
0.14155422 0.0032401823 -0.70266724
0.1431409 0.0027946348 -0.70287901
0.14428158 0.0027748169 -0.70283085
0.14542367 0.0027469904 -0.70275509
0.14656848 0.0027079203 -0.70263171
0.14771426 0.0026620005 -0.70249188
0.14886771 0.0025999174 -0.70230591
0.14977419 0.0028001033 -0.7020703
0.15067747 0.0030023053 -0.70183599
0.15182087 0.0029409605 -0.70163316
0.15271257 0.0031451059 -0.70141113
0.15333493 0.0036084852 -0.70117795
0.15421113 0.0038159892 -0.70096904
0.15508512 0.0040199594 -0.70073408
0.15596522 0.0042255279 -0.7005083
0.1568425 0.0044424236 -0.70028752
0.15772314 0.0046587628 -0.70005572
0.15886068 0.0046145511 -0.69983518
0.15976261 0.0048360224 -0.69959736
0.16091695 0.004799603 -0.6994012
0.16184159 0.0050226082 -0.69916701
0.1630065 0.0049834172 -0.6989947
0.16416766 0.0049463776 -0.69881749
0.16532327 0.0049106111 -0.6986661
0.16628291 0.0051255394 -0.69849151
0.16761586 0.0048709819 -0.69851106
0.16894986 0.004613311 -0.69860607
0.17026767 0.0043867752 -0.69879937
0.17159161 0.0041931286 -0.69910514
0.17292464 0.0040110708 -0.69948137
0.17402358 0.0041203327 -0.69984233
0.175639 0.0037743817 -0.7006743
0.17671573 0.0039579323 -0.70124549
0.17839348 0.0036692019 -0.70230877
-0.042729244 0.0038768726 -0.8180244
-0.041267708 0.0038530196 -0.81715637
-0.04081846 0.0034560238 -0.8170256
-0.039892748 0.0032565373 -0.8164593
-0.038960408 0.0030846775 -0.81590265
-0.038054984 0.002910105 -0.81530118
-0.037190549 0.0027385578 -0.81464857
-0.035904739 0.0027162547 -0.81355983
-0.034663394 0.0026890209 -0.81242007
-0.033919044 0.0025359059 -0.81167257
-0.033195909 0.002415301 -0.81090933
-0.032085311 0.0023746316 -0.80972475
-0.030668454 0.0024358341 -0.8079235
-0.029690316 0.0024057324 -0.80661869
-0.028722765 0.0023637938 -0.80530453
-0.027467147 0.0024406177 -0.80332285
-0.026134836 0.0025045034 -0.80143833
-0.024827568 0.0025992889 -0.79948562
-0.023011977 0.0027302767 -0.79701227
-0.020577576 0.0027917381 -0.79401183
-0.017908316 0.0027341472 -0.79109538
-0.015026745 0.0024835011 -0.78821868
-0.01198835 0.0020617018 -0.78533268
-0.0089750104 0.0016561424 -0.78224921
-0.0061690221 0.0015126274 -0.77884167
-0.0037877783 0.0015663429 -0.77495193
-0.0023072194 0.0017920421 -0.77169931
-0.0011406908 0.0020949843 -0.76829404
-0.00045342263 0.0023530622 -0.76586384
0.00010192239 0.0025107341 -0.76343083
0.00072393869 0.0026186847 -0.76112032
0.0010395283 0.0026722034 -0.75977868
0.0014680002 0.0026915483 -0.7584644
0.0023368639 0.0027024611 -0.75635916
0.0033823051 0.0026911998 -0.7543394
0.0052285334 0.0026526786 -0.7515806
0.006528696 0.0026123056 -0.74975628
0.0093580224 0.0024440708 -0.74662185
0.013027788 0.0022859254 -0.74223781
0.015499506 0.0025164993 -0.73678088
0.014748994 0.0031467297 -0.72900712
0.011392886 0.0030560731 -0.72217369
0.0086809928 0.0023705985 -0.71469736
0.010243263 0.0025205938 -0.71116024
0.011744977 0.002715071 -0.70980364
0.013586741 0.0031542401 -0.70832795
0.015059498 0.0034569658 -0.70747912
0.016328132 0.0035695343 -0.70698631
0.01764977 0.0036925725 -0.70659888
0.018675582 0.0036118708 -0.70641077
0.01941373 0.0033013078 -0.70637608
0.020146998 0.0030117398 -0.70634031
0.020843979 0.0027539965 -0.70629489
0.021529099 0.002503681 -0.70623171
0.022269657 0.0022913525 -0.7062915
0.023458891 0.0023174477 -0.70640081
0.024398349 0.002206088 -0.70690286
0.025323246 0.0020776012 -0.70736396
0.026428876 0.0020574061 -0.7072646
0.027560983 0.0020425199 -0.70720613
0.02869034 0.0020005014 -0.70711732
0.029784022 0.0015286646 -0.70753044
0.03113601 0.0018203098 -0.70705515
0.032281589 0.0015037259 -0.70653909
0.033505861 0.00096938724 -0.70563734
0.034950677 0.00018983496 -0.70458579
0.036060911 0.00065529603 -0.70407069
0.037169728 0.00099363946 -0.70344377
0.038253218 0.0013486827 -0.70288074
0.039355371 0.0015760198 -0.7020669
0.040504918 0.0016886165 -0.70110953
0.041591451 0.0017613074 -0.70004565
0.042677093 0.0018843742 -0.69925648
0.043765545 0.0020530366 -0.69882226
0.044856086 0.002184015 -0.69843531
0.046033699 0.0021490476 -0.69833165
0.047090251 0.0022952638 -0.69810677
0.048249111 0.002280934 -0.69808656
0.049279377 0.002427072 -0.69804066
0.050392698 0.0024516073 -0.69821787
0.051609479 0.0024113443 -0.69892061
0.052686065 0.0025005825 -0.69943511
0.053754188 0.0025694158 -0.69989562
0.054924656 0.0026341912 -0.70109898
0.055972166 0.0027290338 -0.70168936
0.057135135 0.0028647066 -0.70310217
0.058437701 0.0029935348 -0.70513916
0.063583508 0.0031541833 -0.70875263
0.064806595 0.0021027997 -0.70773876
0.065235592 0.0020802049 -0.70691651
0.065081984 0.0021707998 -0.70659542
0.065271035 0.0023864473 -0.70665675
0.066133425 0.0024850543 -0.70613039
0.068561509 0.0024835512 -0.70440561
0.070122771 0.0025048635 -0.70336336
0.071745075 0.0024666952 -0.70255572
0.073291108 0.0024991671 -0.7018252
0.075116694 0.0024014749 -0.70122981
0.076547727 0.0024573877 -0.70068377
0.077897854 0.0024706279 -0.7002055
0.078910716 0.0025517801 -0.69961035
0.080203712 0.0025919091 -0.69912112
0.081424534 0.0025703518 -0.69865787
0.082619824 0.0025756881 -0.6981765
0.083622597 0.0026600962 -0.69765198
0.084645949 0.0027384933 -0.69715142
0.085848838 0.0026986995 -0.69680434
0.086919896 0.0027657708 -0.69640517
0.087946936 0.0028475039 -0.69602144
0.089160338 0.0027444968 -0.69575775
0.090236217 0.0027833832 -0.69546789
0.09133973 0.002806596 -0.69519061
0.092448734 0.0028039094 -0.69495058
0.093562551 0.0028038328 -0.69474298
0.094702587 0.0028658647 -0.69461459
0.095926136 0.0027999545 -0.69449496
0.097151548 0.0027070155 -0.69439912
0.098449074 0.0026585623 -0.69448614
0.099824302 0.0025861259 -0.69474667
0.10118251 0.0024432591 -0.69493574
0.10258926 0.0023299719 -0.69552809
0.1040619 0.0022589841 -0.69633573
0.10535888 0.0021298395 -0.69679582
0.10661152 0.0020465849 -0.69730818
0.107913 0.0021100582 -0.69860953
0.10911223 0.0020209269 -0.69906825
0.11014657 0.0019997733 -0.69889802
0.1112772 0.00198186 -0.69934666
0.11240185 0.0019533578 -0.69968402
0.11336911 0.0019898103 -0.6995942
