# .PCD v0.7 - Point Cloud Data file format
VERSION 0.7
FIELDS x y z
SIZE 4 4 4
TYPE F F F
COUNT 1 1 1
WIDTH 1322
HEIGHT 1
VIEWPOINT 0 0 0 1 0 0 0
POINTS 1322
DATA ascii
-0.27473262 -0.096838355 -0.78492945
-0.26503173 -0.095838174 -0.78460222
-0.25551805 -0.095600381 -0.78390586
-0.24523294 -0.095577836 -0.78429383
-0.23443514 -0.09478458 -0.78503633
-0.22606546 -0.09365505 -0.78478104
-0.21534315 -0.091920301 -0.78495151
-0.20617783 -0.090974562 -0.78379667
-0.19441824 -0.090337202 -0.78186959
-0.1038891 -0.090216108 -0.78373808
-0.19132288 -0.089805983 -0.78958321
-0.18583843 -0.089680567 -0.7877152
-0.17596297 -0.089565143 -0.78445476
-0.1642881 -0.08939714 -0.78493482
-0.14072023 -0.086673804 -0.78595239
-0.13429007 -0.086411722 -0.78489208
-0.1258066 -0.086631253 -0.78534895
-0.11723882 -0.08897353 -0.78114122
-0.10325032 -0.089985184 -0.78843713
-0.094445221 -0.08919277 -0.78592557
-0.085016578 -0.086670414 -0.78505099
-0.075924627 -0.083976619 -0.78584826
-0.064737685 -0.082550302 -0.78450876
-0.054126214 -0.082079299 -0.7851997
-0.045042463 -0.082134582 -0.78613162
-0.035709154 -0.082443044 -0.78507876
-0.02524169 -0.082256891 -0.78512752
-0.014971396 -0.082831345 -0.78478265
-0.0040364354 -0.082258247 -0.7856459
0.00059998257 -0.080659628 -0.78402197
0.0037520477 -0.075203054 -0.78484952
0.0051418436 -0.064622879 -0.78461576
-0.00050404022 -0.050233208 -0.78132856
0.0025741097 -0.055123407 -0.7845332
-0.0032829458 -0.044844721 -0.7842223
0.0004805364 -0.049440388 -0.78726977
-0.011956927 -0.03227365 -0.78326768
-0.0082573453 -0.038091939 -0.78405052
-0.014730987 -0.024240451 -0.78425056
-0.015336906 -0.014371499 -0.7848168
-0.014445194 -0.004863264 -0.78536546
-0.0096251024 -0.0012757176 -0.78089744
-0.012814734 0.0043471167 -0.78692299
-0.0075209136 0.006041748 -0.78237116
-0.011275552 0.011648551 -0.78952914
-0.0042833844 0.014029073 -0.7852093
0.00064435962 0.019210557 -0.78575146
-6.391581e-05 0.029440057 -0.7806837
0.0020601864 0.023854207 -0.78528738
-0.00031521491 0.035377301 -0.78133368
0.0017386478 0.035206985 -0.78654504
-0.0011350965 0.045386698 -0.78226054
0.0012732145 0.045164257 -0.78720903
-0.0018384791 0.055085845 -0.78290308
0.0010712168 0.05509067 -0.78796178
-0.0020483949 0.064632796 -0.78330183
0.00093361997 0.065176755 -0.78813899
-0.0021411781 0.074854061 -0.78267187
0.00086576305 0.075385407 -0.78787053
-0.0017728657 0.085240901 -0.7841953
0.0010641604 0.085234083 -0.78979528
-0.0016961365 0.095213957 -0.78441513
3.0650255e-05 0.095375523 -0.78956938
-0.00089546194 0.10407492 -0.78310961
0.00132753 0.10544104 -0.78796071
0.004361406 0.11528732 -0.7850697
0.0073042982 0.12472832 -0.78413039
0.010216986 0.1265101 -0.78795826
0.0080948323 0.13458003 -0.7837767
0.010742166 0.13418104 -0.78829992
0.0087140491 0.14361495 -0.78233558
0.011196103 0.14560997 -0.7864781
0.015474057 0.15499981 -0.78470039
0.02478845 0.1637115 -0.78643149
0.034559052 0.167137 -0.78413326
0.042933423 0.16854845 -0.78144664
0.03744157 0.17099731 -0.78880674
0.046006475 0.17235993 -0.78511178
0.054485027 0.17635822 -0.7845
0.061983407 0.1796523 -0.78243399
0.05917633 0.18033746 -0.78733325
0.066379733 0.18323879 -0.78524226
0.07542409 0.18777624 -0.78498411
0.083551601 0.189999 -0.7808097
0.079848208 0.19002146 -0.78613496
0.085984938 0.19161406 -0.78407764
0.096139416 0.19449708 -0.78446895
0.10513357 0.19726749 -0.78432232
0.11235792 0.19930929 -0.78477669
0.12202821 0.19933641 -0.78663355
0.11400824 0.20059444 -0.78187948
0.12382144 0.20469241 -0.78495759
0.13321002 0.20010158 -0.78081369
0.12370141 0.22826707 -0.78991616
0.11800777 0.23842153 -0.78854573
0.12125535 0.23496126 -0.78866357
0.098651774 0.24906163 -0.78615767
0.10523156 0.24680631 -0.78535819
0.11458917 0.24382633 -0.784352
0.12052958 0.24404395 -0.78252608
0.085838668 0.25743032 -0.78531325
0.09454713 0.25154114 -0.7838878
0.07552202 0.26325873 -0.78476864
0.081427194 0.2615 -0.78374988
-0.35145926 -0.10636026 -0.77223653
-0.34507221 -0.10489286 -0.77559006
-0.33880416 -0.10395864 -0.77281088
-0.32411769 -0.10345495 -0.77340114
-0.31537363 -0.10235386 -0.77477121
-0.30503646 -0.10103939 -0.77459532
-0.29660642 -0.10020602 -0.77272713
-0.29438603 -0.099695131 -0.77698827
-0.28517905 -0.098894529 -0.77528459
-0.27445513 -0.097945482 -0.774782
-0.26456761 -0.097220421 -0.77531344
-0.25533947 -0.097310767 -0.77391756
-0.24479935 -0.096858516 -0.77539158
-0.23482569 -0.096117981 -0.77499044
-0.22518912 -0.094650224 -0.77513093
-0.21462214 -0.092814803 -0.77513963
-0.20599394 -0.091807626 -0.77502549
-0.19575742 -0.091149539 -0.7728982
-0.18599071 -0.090307683 -0.77466667
-0.11511993 -0.090380192 -0.77255201
-0.10516426 -0.091137961 -0.77488601
-0.094367646 -0.091294475 -0.77330023
-0.086464167 -0.090914011 -0.77294981
-0.079600811 -0.090567917 -0.77141714
-0.17652501 -0.089695029 -0.77542377
-0.16874552 -0.089125142 -0.77578527
-0.14170609 -0.087909684 -0.77463162
-0.13270177 -0.087618001 -0.7765283
-0.12588228 -0.088354275 -0.77554566
-0.11877307 -0.088911556 -0.77869284
-0.090992987 -0.089753658 -0.77908707
-0.083630957 -0.089089729 -0.77722025
-0.074743263 -0.087712914 -0.77616358
-0.065069251 -0.086129807 -0.7754724
-0.05562298 -0.08451353 -0.7750386
-0.045139186 -0.083913177 -0.77507746
-0.033889294 -0.083415091 -0.77486151
-0.025669692 -0.082762673 -0.77434731
-0.01640645 -0.082293183 -0.77480221
-0.0045870072 -0.082248479 -0.77538317
0.00041951545 -0.080202833 -0.77778471
-8.7071836e-05 -0.079181641 -0.77184409
0.0028521507 -0.075097002 -0.77540815
0.0045502442 -0.065188259 -0.77544087
-0.00036094821 -0.050946563 -0.77893233
0.0022339975 -0.055712521 -0.77446175
-0.0029372517 -0.045123994 -0.77477765
0.0002419045 -0.049477741 -0.77017885
-0.010810947 -0.031717584 -0.77828056
-0.0074823247 -0.035400081 -0.77407157
-0.011516772 -0.025352437 -0.77787387
-0.0082894778 -0.025341541 -0.77286279
-0.010991723 -0.015663806 -0.77849156
-0.0071763159 -0.014867933 -0.77374291
-0.010638895 -0.0082552051 -0.77967447
-0.0060949856 -0.0047001988 -0.77514088
-0.0037433251 0.0048448634 -0.77518576
-0.001799384 0.014243229 -0.77507377
-0.001206418 0.023988603 -0.77436948
0.00012190604 0.027164057 -0.7799316
-0.0021241142 0.034952909 -0.77439255
-0.0035674116 0.045022786 -0.77402133
-0.0044148774 0.054946817 -0.77415717
-0.0047589522 0.065017127 -0.77405483
-0.0043703611 0.075371571 -0.77371341
-0.0038949181 0.085127629 -0.77473074
-0.003207403 0.095415473 -0.77468097
-0.0018855452 0.10491223 -0.77487427
-0.00058539287 0.1115655 -0.77302408
0.00087794755 0.11615587 -0.7750963
0.0027209923 0.12556307 -0.77476645
0.0039962544 0.13496956 -0.77465445
0.0065297727 0.14415561 -0.77468514
0.01423168 0.15353607 -0.77469856
0.024884075 0.15755121 -0.77387792
0.035198528 0.1592254 -0.77100044
0.027709022 0.16051811 -0.77764213
0.035418164 0.16214509 -0.77599287
0.04494017 0.16613553 -0.77584821
0.051442899 0.16897312 -0.77391922
0.055794653 0.17268535 -0.77555305
0.062963597 0.17686376 -0.77372628
0.069236271 0.1811018 -0.77436471
0.074635804 0.18414938 -0.77445281
0.083706096 0.18862124 -0.77596247
0.087303698 0.19049628 -0.77832282
0.09638758 0.19278377 -0.77678579
0.10449055 0.19693312 -0.77588499
0.13366112 0.19624242 -0.77352762
0.10954084 0.20020805 -0.7753523
0.11473131 0.20119022 -0.77477872
0.12224237 0.20294613 -0.7777524
0.10636607 0.24912465 -0.77822912
0.11438739 0.24833195 -0.77800071
0.12006094 0.24715386 -0.77977616
0.087316625 0.25778988 -0.77510935
0.095267452 0.25408322 -0.77446055
0.10429882 0.25156921 -0.77408266
0.1134115 0.2517873 -0.77368146
0.068309784 0.26911506 -0.77286088
0.075039648 0.26560602 -0.77506
0.081603758 0.26157704 -0.77496368
0.065596841 0.27054438 -0.77092838
-0.36131066 -0.11034442 -0.76196015
-0.36084878 -0.10980041 -0.76114786
-0.35490167 -0.10714269 -0.76374286
-0.34742308 -0.10488632 -0.76339579
-0.33382121 -0.10403154 -0.76389718
-0.32338521 -0.10355663 -0.76506162
-0.31583294 -0.10277208 -0.76508409
-0.30463529 -0.10157457 -0.76460803
-0.29460666 -0.1007764 -0.76484609
-0.28564844 -0.10058057 -0.76309949
-0.27487814 -0.10023291 -0.76277775
-0.26505765 -0.10021444 -0.76131117
-0.25807878 -0.10013433 -0.76027846
-0.29178742 -0.099981576 -0.7698949
-0.28300038 -0.099735931 -0.76734203
-0.27556807 -0.099259667 -0.76762646
-0.26511341 -0.099006705 -0.76687944
-0.25545371 -0.09912502 -0.76476526
-0.24430294 -0.098431252 -0.76501882
-0.23432297 -0.097349778 -0.76505744
-0.22483508 -0.095817961 -0.76479489
-0.21501125 -0.094108008 -0.76482886
-0.20514892 -0.09281946 -0.76463407
-0.19516221 -0.091815561 -0.76390177
-0.18573822 -0.090728872 -0.76621443
-0.1795159 -0.090054803 -0.76650649
-0.13188705 -0.090083182 -0.76406795
-0.12393154 -0.091081113 -0.76369792
-0.11622099 -0.091665693 -0.76520836
-0.10516181 -0.092223741 -0.76590478
-0.092951819 -0.091957532 -0.76708269
-0.085904464 -0.092303917 -0.76463014
-0.07527487 -0.09151195 -0.76478815
-0.069571815 -0.090423912 -0.76429939
-0.17385782 -0.089427277 -0.76701814
-0.13554962 -0.089333266 -0.76320332
-0.12523393 -0.089968204 -0.76817906
-0.071073517 -0.089578673 -0.76938784
-0.065606549 -0.088731475 -0.76509976
-0.055393856 -0.085892417 -0.76538658
-0.046757691 -0.084278196 -0.76584566
-0.033424553 -0.083054774 -0.76397163
-0.024935795 -0.082388669 -0.76579714
-0.014679722 -0.081414878 -0.76452726
-0.0054234769 -0.081543334 -0.76673484
-0.0016224744 -0.077868275 -0.7636674
0.002216259 -0.073844515 -0.76500094
0.0047500534 -0.064689755 -0.76493466
0.0034432139 -0.055610437 -0.76494533
-0.0016625747 -0.043105301 -0.76585752
0.0011769742 -0.047663219 -0.76324928
-0.004091599 -0.035049126 -0.76487404
-0.0041058669 -0.024931334 -0.76508713
-0.0025548893 -0.014958734 -0.76537359
-0.0014507258 -0.0052529373 -0.76559287
0.00049814099 -0.0023038213 -0.76159519
-0.0010165914 0.0053422269 -0.76591957
0.00033360763 0.0035901407 -0.76155376
-0.0016522702 0.014906592 -0.76503444
-0.0025008738 0.024617055 -0.76470667
-0.0037471203 0.03464232 -0.7644031
-0.0046538855 0.044588376 -0.7647382
-0.0047684023 0.055020973 -0.76501608
-0.0047600609 0.065163173 -0.76491433
-0.0046459385 0.074783415 -0.76515061
-0.0039220834 0.084827654 -0.76515281
-0.0024868622 0.095271774 -0.76524884
-0.0011514174 0.10506598 -0.7647686
0.00051806116 0.10936375 -0.76097548
-0.00038414239 0.11136978 -0.76644582
0.00063750561 0.11556828 -0.76396722
0.0012145232 0.12463922 -0.76466066
0.003697468 0.13545237 -0.76472682
0.0068127741 0.14299408 -0.76568186
0.012452072 0.14775339 -0.76328832
0.016217258 0.1514184 -0.765782
0.024241524 0.15397972 -0.76544505
0.035006188 0.15684472 -0.76463646
0.042710483 0.15971801 -0.76417047
0.047228966 0.16296832 -0.76542455
0.053733207 0.16748227 -0.76509094
0.059100065 0.17168021 -0.76478982
0.064307131 0.17559901 -0.76566958
0.074542336 0.18195687 -0.76462919
0.086605862 0.18668509 -0.76294625
0.092061862 0.18888324 -0.766114
0.097211339 0.19097821 -0.76497597
0.10458119 0.19668807 -0.76498878
0.11076693 0.19980244 -0.76647973
0.13365501 0.19306216 -0.76365083
0.11321183 0.2007985 -0.7654103
0.088632159 0.25917238 -0.76690859
0.094875254 0.25783107 -0.7658093
0.10492727 0.25665063 -0.76685518
0.11098559 0.25720859 -0.76758212
0.069159895 0.26930958 -0.76431769
0.074678242 0.26576144 -0.76498884
0.085551836 0.26104555 -0.76351029
0.091259569 0.26025182 -0.76088762
0.1054671 0.26104426 -0.76171893
0.064783327 0.27207485 -0.76498532
-0.36394525 -0.11048432 -0.75484431
-0.36145177 -0.10934447 -0.75548512
-0.35430747 -0.10707439 -0.75492007
-0.34589741 -0.10550845 -0.7553615
-0.33467171 -0.10452681 -0.75484431
-0.32428622 -0.10401331 -0.75518477
-0.31536052 -0.10327404 -0.75484842
-0.30588061 -0.10268278 -0.75377369
-0.29498184 -0.10216424 -0.75492233
-0.28493655 -0.10191363 -0.75511545
-0.27506694 -0.10167596 -0.75512707
-0.26487532 -0.10119342 -0.75567722
-0.25581586 -0.10067625 -0.75470155
-0.24768059 -0.10006233 -0.75163764
-0.252056 -0.09983895 -0.75935781
-0.24529795 -0.099539757 -0.75570107
-0.23508593 -0.098291203 -0.75666749
-0.2250413 -0.096835308 -0.75499016
-0.21539147 -0.095332198 -0.7548607
-0.20481177 -0.093678884 -0.75565588
-0.19388747 -0.092413105 -0.75491577
-0.13234347 -0.091033936 -0.75404161
-0.1246341 -0.091759592 -0.75657374
-0.11746722 -0.092191458 -0.75746661
-0.084314793 -0.091580361 -0.75583071
-0.076150641 -0.090848818 -0.75703019
-0.17185023 -0.088414155 -0.75100821
-0.082892984 -0.089764677 -0.75136834
-0.076313719 -0.08955209 -0.75217319
-0.06459941 -0.08735919 -0.75508749
-0.054833032 -0.084799618 -0.75308764
-0.043985523 -0.08366257 -0.75358045
-0.030343298 -0.0823256 -0.75692886
-0.024860838 -0.0813132 -0.75493115
-0.015566166 -0.08109118 -0.75631982
-0.0087093497 -0.08117155 -0.75825363
-0.011963362 -0.079322331 -0.75499761
-0.0030883611 -0.076623067 -0.75436878
0.0023646532 -0.07299915 -0.75412893
0.0055781445 -0.064879917 -0.75504124
0.0053539895 -0.054930504 -0.75504684
-0.00045642388 -0.04077493 -0.75925702
0.0035971266 -0.04553856 -0.75440735
-0.0012936246 -0.034278575 -0.75685775
0.0012461327 -0.035812166 -0.75228691
-0.0010518801 -0.025625831 -0.75742978
0.001495394 -0.02399664 -0.75256449
-0.00045568246 -0.017188877 -0.75939709
0.0020515081 -0.014205227 -0.75455427
0.0026762048 -0.0044944803 -0.75502688
0.0028178224 0.0039899549 -0.75495023
-0.00074362883 0.015700575 -0.75806713
0.0018481892 0.014263329 -0.75301939
-0.0013109623 0.025076814 -0.75620455
0.00085073296 0.023733098 -0.75199699
-0.0026951393 0.035143238 -0.75422996
-0.0044924608 0.044306636 -0.75483447
-0.0052815112 0.054819129 -0.75506294
-0.0047270893 0.064908631 -0.75474572
-0.0034442854 0.07525377 -0.75489229
-0.0027854976 0.085082345 -0.75527602
-0.0011184944 0.093707927 -0.75606537
0.00083666772 0.097442158 -0.75327408
-0.00013049124 0.10345129 -0.75868028
0.00087037194 0.10532826 -0.75462782
0.0011652837 0.11491325 -0.75499827
0.0026030524 0.12513015 -0.75466985
0.0067706262 0.13369745 -0.75585735
0.012557103 0.1370928 -0.75274259
0.009050847 0.14081296 -0.75944608
0.015206285 0.1434903 -0.75545269
0.022668425 0.14805256 -0.7526691
0.026953161 0.15196475 -0.7555306
0.035709962 0.15599509 -0.75434303
0.041992057 0.15908717 -0.75670975
0.046095997 0.16233021 -0.75489062
0.054227125 0.1682833 -0.75507319
0.063928306 0.17537092 -0.75620192
0.076978296 0.18351695 -0.7518909
0.085757032 0.18631347 -0.75585186
0.091610298 0.1899208 -0.75212735
0.13420999 0.18845567 -0.75370693
0.096082397 0.19190945 -0.75560951
0.10427947 0.19825782 -0.75558352
0.13368075 0.19087887 -0.75825804
0.10653359 0.20131345 -0.75516063
0.11061605 0.20034838 -0.75980037
0.067872807 0.26849103 -0.75400549
0.076226369 0.26441735 -0.75429136
0.085119449 0.26231396 -0.75533605
0.095018081 0.26231021 -0.75534683
0.10292874 0.26413766 -0.75569749
0.059585992 0.27665016 -0.75141293
0.063225977 0.27300447 -0.75527859
-0.37175989 -0.1115844 -0.74165976
-0.36610112 -0.11040466 -0.74564075
-0.36240485 -0.10943634 -0.74499112
-0.35427675 -0.10790914 -0.74533474
-0.34548691 -0.10675318 -0.74481672
-0.33481771 -0.10563762 -0.74419641
-0.32503867 -0.10473897 -0.74493098
-0.31552035 -0.1040367 -0.74471986
-0.3045612 -0.10369038 -0.74509877
-0.29483396 -0.10357036 -0.74504298
-0.28581041 -0.10327221 -0.74548459
-0.27356899 -0.10280929 -0.74583167
-0.26413611 -0.10202938 -0.74512649
-0.25411496 -0.10077269 -0.74448174
-0.24760224 -0.10010227 -0.74727219
-0.24365783 -0.099587396 -0.74326897
-0.23517686 -0.098732799 -0.74733162
-0.22463727 -0.097591124 -0.74484617
-0.21586762 -0.096440174 -0.7451188
-0.20507459 -0.094859309 -0.74540538
-0.19597794 -0.093774587 -0.74435812
-0.13560712 -0.090924144 -0.74629533
-0.12581183 -0.091653362 -0.74887836
-0.17241065 -0.088237636 -0.74266362
-0.16837311 -0.087662242 -0.74350554
-0.085415348 -0.08850956 -0.74546862
-0.076416075 -0.087711595 -0.7468347
-0.063836187 -0.085187197 -0.74656165
-0.054808106 -0.084428623 -0.74478304
-0.047665484 -0.083926976 -0.74386811
-0.03323264 -0.081871673 -0.74330699
-0.025424225 -0.080844536 -0.7444219
-0.016326018 -0.080212273 -0.74637181
-0.020715028 -0.079812936 -0.74180865
-0.013066833 -0.079624362 -0.74368918
-0.004636657 -0.077373408 -0.74474299
0.0035939466 -0.073029168 -0.74452084
0.008130393 -0.066299833 -0.74581569
0.011489761 -0.064043961 -0.74204177
0.008239124 -0.054627363 -0.74698418
0.011711501 -0.055000398 -0.74242598
0.0076019368 -0.044535622 -0.74681056
0.011387554 -0.044907842 -0.74203873
0.0058666975 -0.035159353 -0.74527514
0.010605017 -0.038259827 -0.74072421
0.0054700663 -0.024938125 -0.74502003
0.0065281703 -0.015190062 -0.74546349
0.028452605 -0.011407322 -0.74064213
0.031427875 -0.011412202 -0.7404837
0.0069473302 -0.005030761 -0.74598253
0.013333724 -0.0020415133 -0.74144971
0.025315367 -0.0039842306 -0.74191201
0.0320764 -0.0044706566 -0.74102741
0.0076200585 0.0047146101 -0.74675238
0.014105446 0.0049324669 -0.74177635
0.025687361 0.0049302839 -0.74172264
0.031594295 0.0044957525 -0.74088019
0.0065907002 0.01517846 -0.74590212
0.01419749 0.014739465 -0.74093348
0.025525263 0.01452848 -0.74187845
0.032759238 0.016430251 -0.74090403
0.0048197294 0.025325444 -0.74540007
0.015020829 0.02251358 -0.74065471
0.025622863 0.025088815 -0.74193859
0.033029035 0.024915751 -0.74100989
-0.00098147604 0.036704365 -0.74771273
0.0024213814 0.033800676 -0.74406785
-0.0019933465 0.045143533 -0.74489027
0.00077613606 0.042197358 -0.74121332
-0.0033306628 0.053652648 -0.74355298
-0.0040619406 0.06515038 -0.7446056
-0.0026010149 0.075056225 -0.74488425
-0.0016102439 0.084990181 -0.74509752
-0.00072552124 0.092949033 -0.74558932
0.0027075133 0.097103283 -0.74416894
0.014315827 0.09900371 -0.74146134
-0.00089773198 0.10065788 -0.74564189
0.0060375785 0.10468924 -0.7459721
0.014646016 0.10563214 -0.74345237
0.0230827 0.1061867 -0.74109685
0.0051495498 0.11498287 -0.74640799
0.015061704 0.11492427 -0.74375123
0.024577374 0.11446568 -0.74156952
0.0063643618 0.12377679 -0.74680352
0.014904934 0.12553434 -0.7449528
0.024571717 0.12517923 -0.74226624
0.0089150434 0.13017191 -0.74945122
0.016212823 0.13365294 -0.74755746
0.0245305 0.13471869 -0.74311304
0.019395836 0.14111182 -0.74915934
0.024486575 0.14420465 -0.74474454
0.028621253 0.15107642 -0.7439127
0.03451018 0.15588614 -0.74574953
0.038865808 0.1609357 -0.74340558
0.044419605 0.16479243 -0.74550438
0.059107125 0.17431083 -0.74265909
0.064204574 0.17742848 -0.74403507
0.072999068 0.18274878 -0.74447507
0.084385321 0.18805075 -0.74574286
0.13473669 0.18567036 -0.74800348
0.089758642 0.19432263 -0.74278152
0.092052646 0.19486514 -0.74578828
0.065401606 0.26781747 -0.74434096
0.075839892 0.26383328 -0.74502975
0.084526859 0.26342222 -0.74613756
0.095119126 0.2659319 -0.74548548
0.10141338 0.26698422 -0.74882615
0.05822517 0.27626821 -0.74414897
0.06115476 0.2723625 -0.74591368
-0.41551983 -0.11013593 -0.73039603
-0.38111541 -0.11220748 -0.73043281
-0.37471831 -0.11167593 -0.73381191
-0.3665565 -0.11040009 -0.73347723
-0.41547823 -0.10965502 -0.7307772
-0.36185163 -0.10963117 -0.73654282
-0.35462391 -0.10885303 -0.73523825
-0.34502459 -0.10787767 -0.7346707
-0.33509055 -0.10664333 -0.73479545
-0.32565224 -0.1054941 -0.7344135
-0.3153452 -0.10470729 -0.73547226
-0.30495355 -0.10459745 -0.73502934
-0.29519546 -0.1043833 -0.73519188
-0.28480178 -0.1037964 -0.73490077
-0.27325884 -0.10267776 -0.7336632
-0.26434648 -0.10160082 -0.73556525
-0.2560299 -0.10038821 -0.73470944
-0.25462368 -0.099976726 -0.73053741
-0.24562158 -0.099523902 -0.73374635
-0.23468393 -0.099058755 -0.73588103
-0.22479755 -0.09841048 -0.73494369
-0.2153091 -0.09730386 -0.73517156
-0.20471649 -0.095862612 -0.73614365
-0.19725887 -0.094701387 -0.73782367
-0.16466382 -0.087674439 -0.73628241
-0.13184851 -0.08824493 -0.7349661
-0.12603779 -0.088806242 -0.73399085
-0.11389831 -0.088888004 -0.73394579
-0.10189322 -0.088323049 -0.73012322
-0.091279283 -0.087470964 -0.73387235
-0.083676606 -0.086576477 -0.73508829
-0.075071104 -0.084981769 -0.73576087
-0.066110149 -0.083927691 -0.73508489
-0.05325773 -0.083896019 -0.73579413
-0.045687806 -0.083476923 -0.73333997
-0.035167467 -0.082380183 -0.73410577
-0.024668979 -0.08105512 -0.73431015
-0.018651189 -0.08036191 -0.73222512
-0.013499971 -0.079631008 -0.73478138
-0.0046240562 -0.077813454 -0.7352069
0.005100538 -0.073318534 -0.73559654
0.013531863 -0.071476638 -0.7330752
0.024101159 -0.070560515 -0.7306025
0.0089896843 -0.068959855 -0.73880094
0.015050962 -0.06542173 -0.73542827
0.024558708 -0.066348769 -0.73175079
0.032362986 -0.065592535 -0.73065591
0.016150247 -0.054683331 -0.73533189
0.02430024 -0.052952234 -0.73181033
0.034553513 -0.052898601 -0.73123717
0.19621813 -0.052076191 -0.73561352
0.20314556 -0.053858299 -0.73586553
0.22791696 -0.055752546 -0.73270994
0.23240432 -0.055106629 -0.73280454
0.015518212 -0.044621754 -0.7358216
0.024879001 -0.045147888 -0.73303759
0.033474844 -0.046397943 -0.73234338
0.18877736 -0.04872328 -0.73152953
0.19256712 -0.049257241 -0.73529857
0.0087934928 -0.033301175 -0.73812753
0.014058701 -0.034959216 -0.73400599
0.023580519 -0.033919048 -0.73026985
0.0088277059 -0.024063567 -0.73837936
0.013124609 -0.025287852 -0.73394036
0.029975517 -0.028285606 -0.73029047
0.034875955 -0.022378162 -0.73065156
0.0090781394 -0.015223903 -0.73673302
0.012399787 -0.015304574 -0.73271519
0.025866177 -0.013233056 -0.73440945
0.033847354 -0.012820887 -0.73506069
0.0095142759 -0.0092253201 -0.73865438
0.013040573 -0.0059072236 -0.7360422
0.021888783 -0.0082478086 -0.73820227
0.037346799 -0.0043605706 -0.73719841
0.04185101 -0.0041681309 -0.73314852
0.015030374 0.0042213919 -0.73569733
0.035715103 0.0042031682 -0.73667759
0.043193996 0.0057627652 -0.73159373
0.053212915 0.0076834518 -0.73053545
0.01177803 0.015416323 -0.73620039
0.036431927 0.015243296 -0.73817843
0.044940319 0.01557 -0.73446125
0.05398294 0.015347739 -0.73184174
0.0091860211 0.026825767 -0.73814595
0.013345942 0.027724512 -0.73668951
0.021625223 0.029219804 -0.73881167
0.037779987 0.025033966 -0.73846942
0.043908719 0.024459656 -0.73529857
0.053328268 0.023621507 -0.73163426
0.0068432009 0.036257222 -0.73702961
0.012824783 0.033809058 -0.73274684
0.025309948 0.031427905 -0.73447561
0.034862854 0.031519134 -0.73427463
0.041988987 0.030562397 -0.73152697
-0.00032121086 0.04946531 -0.73950648
0.0045315693 0.045436025 -0.73532438
0.010640779 0.041939419 -0.73080468
-0.0010516921 0.056249283 -0.73839444
0.0039630253 0.054817609 -0.73348993
-0.0020628197 0.065323502 -0.73733079
0.0019036751 0.063632868 -0.73203701
-0.0030347256 0.074119411 -0.73470336
0.00057793059 0.071799465 -0.7304011
-0.011100115 0.085496649 -0.73031372
-0.0048265541 0.086186171 -0.73380333
-0.0042249262 0.094632 -0.73499513
0.0045530912 0.094601601 -0.73577034
0.01519091 0.096082188 -0.73596627
0.021671101 0.097835876 -0.73439646
-0.0066603795 0.10046303 -0.73466969
0.027605595 0.10544159 -0.73599911
0.030525023 0.10917619 -0.73333907
-0.004892448 0.11699557 -0.73460311
0.0014108265 0.1186052 -0.73854631
0.028900471 0.1132386 -0.73885405
0.032092378 0.11513482 -0.73464578
-0.0061639878 0.12377783 -0.73321521
0.0016948879 0.12090712 -0.73818368
0.029589675 0.12451985 -0.73963886
0.033045214 0.12533131 -0.7348361
0.028669385 0.13636811 -0.73674423
0.031290989 0.13315284 -0.73333246
0.026285416 0.1449295 -0.73504293
0.02894499 0.15262167 -0.73657638
0.032250408 0.15680411 -0.73667282
0.037684586 0.16209984 -0.73152971
0.044987999 0.165574 -0.73311663
0.052707862 0.16959466 -0.73402351
0.056788906 0.17257492 -0.73447824
0.062572345 0.17716917 -0.73431242
0.068300664 0.1821762 -0.73373711
0.073792763 0.18440831 -0.73861617
0.082436934 0.19320782 -0.73525882
0.057833411 0.26863274 -0.73335588
0.0651896 0.26486436 -0.73467261
0.074254856 0.26321092 -0.73582971
0.085354313 0.26511231 -0.73540395
0.092748396 0.26818234 -0.73587716
0.055761639 0.27445444 -0.73550832
-0.41372064 -0.11231849 -0.72503346
-0.40888503 -0.11135516 -0.72327447
-0.39110374 -0.11171949 -0.72166395
-0.38270682 -0.11244872 -0.72468925
-0.37518135 -0.11183967 -0.72576094
-0.36599097 -0.11068799 -0.72456157
-0.35757011 -0.1100051 -0.72367096
-0.41333416 -0.10981522 -0.72815675
-0.36090645 -0.10993835 -0.72865027
-0.35472628 -0.10967737 -0.724971
-0.34418887 -0.10860229 -0.72482222
-0.33536953 -0.10723856 -0.7253418
-0.32567 -0.10588873 -0.72511834
-0.31565303 -0.10535467 -0.72543567
-0.30513951 -0.1053713 -0.72362316
-0.29444477 -0.10456091 -0.72473282
-0.2850017 -0.1038693 -0.72401422
-0.27460602 -0.10281723 -0.72416615
-0.26542294 -0.1015394 -0.72469443
-0.25596794 -0.10035492 -0.72356892
-0.24353582 -0.10010772 -0.72243023
-0.23470028 -0.10032892 -0.72255689
-0.22806849 -0.10026226 -0.72109538
-0.25241384 -0.099771217 -0.72827655
-0.24583498 -0.099709906 -0.72562665
-0.23364203 -0.099673048 -0.72783089
-0.2242848 -0.099283554 -0.72556973
-0.21497332 -0.097922839 -0.72475189
-0.20771533 -0.096537516 -0.72843099
-0.16364774 -0.088360801 -0.72250915
-0.13121283 -0.08893887 -0.72361773
-0.12528782 -0.088874459 -0.72347927
-0.11449156 -0.088693216 -0.72417128
-0.10740045 -0.088492393 -0.72429335
-0.093963422 -0.087194301 -0.72379047
-0.083939105 -0.085602634 -0.72461611
-0.075135477 -0.084402658 -0.72527778
-0.065375075 -0.08403594 -0.72518611
-0.054312639 -0.084152199 -0.7230708
-0.046288405 -0.083629332 -0.72305584
-0.034497585 -0.082395516 -0.72431737
-0.024104875 -0.081318118 -0.7247653
-0.015085611 -0.080593973 -0.7246784
-0.011179538 -0.079889044 -0.72654867
-0.0042490251 -0.078065656 -0.72572124
0.0062415404 -0.072720923 -0.72578925
0.013526503 -0.071588717 -0.72530442
0.025512427 -0.070791475 -0.72730792
0.031588532 -0.070464566 -0.72614735
0.0099265426 -0.069790892 -0.72345632
0.014521302 -0.067065708 -0.72327667
0.02528261 -0.065719277 -0.72464257
0.03536848 -0.065155625 -0.72515929
0.017431566 -0.05470084 -0.72495455
0.025394831 -0.056940839 -0.72875398
0.037327927 -0.056376938 -0.72456694
0.04049385 -0.05349813 -0.72275537
0.18687966 -0.053407583 -0.72455192
0.19471401 -0.05685427 -0.72561729
0.20600033 -0.056666546 -0.72485691
0.21499571 -0.056615591 -0.72256815
0.22439347 -0.055908095 -0.72566086
0.23467237 -0.055272531 -0.72492689
0.019309217 -0.047545139 -0.72434437
0.023478532 -0.043657906 -0.72559816
0.036535185 -0.044209227 -0.72561574
0.040924925 -0.044990763 -0.72246611
0.17969036 -0.04243445 -0.72044599
0.18312213 -0.045722403 -0.7242434
0.018235806 -0.03450666 -0.7250855
0.026450029 -0.036013816 -0.72711062
0.034584325 -0.034983691 -0.72602046
0.043435629 -0.035298523 -0.72340393
0.17916873 -0.038997486 -0.72021526
0.18075642 -0.039700892 -0.72160178
0.018125232 -0.024862463 -0.72739685
0.024281764 -0.024727646 -0.72572327
0.03569328 -0.025931977 -0.72658813
0.041596938 -0.025543652 -0.72348589
0.015031998 -0.015163394 -0.72505522
0.026709387 -0.016892007 -0.72558421
0.035040658 -0.01322948 -0.72552991
0.011609541 -0.005853836 -0.72464937
0.036326617 -0.0087243272 -0.72485733
0.045521788 -0.0046331529 -0.7255066
0.053782195 -0.002828391 -0.72386974
0.012290737 0.0048296531 -0.72483176
0.046687633 0.0030736127 -0.72946793
0.056821119 0.0036297799 -0.72700012
0.060759455 0.0065791453 -0.72279215
0.0069435686 0.017059818 -0.72396266
0.012223561 0.011347566 -0.72965747
0.058878057 0.014483096 -0.7282474
0.061368823 0.014882904 -0.72302336
0.008529298 0.023177609 -0.72426152
0.011695871 0.027633095 -0.72527963
0.034735225 0.029945521 -0.72038466
0.045350909 0.029338915 -0.72268581
0.056275699 0.025516419 -0.72641945
0.061517648 0.022665273 -0.72271341
0.016011218 0.03607716 -0.72456473
0.024468293 0.033252489 -0.72482973
0.034783751 0.031437766 -0.72557968
0.04422063 0.030545853 -0.72720921
0.0097313793 0.046515949 -0.72961724
0.01504406 0.044775646 -0.72480005
0.020612039 0.044468835 -0.72056514
0.0089307269 0.056582619 -0.72896153
0.014546208 0.054662194 -0.72499943
0.0067828442 0.065416515 -0.72797704
0.014443126 0.064921126 -0.72345734
-0.0018906287 0.078716576 -0.72909379
0.0047286148 0.075417183 -0.72712231
0.012951555 0.074679762 -0.72213769
-0.010732762 0.083780117 -0.72936302
-0.0053086816 0.084634908 -0.72649354
0.0044411784 0.082469128 -0.72370452
0.011315274 0.081851266 -0.72064763
-0.010123223 0.099844143 -0.72731006
-0.0069426554 0.094934978 -0.72553205
0.006639732 0.091718942 -0.72553402
0.015899697 0.093486235 -0.72384262
0.022555627 0.097127005 -0.72309297
-0.010691579 0.10150496 -0.72643614
-0.0083905114 0.10229851 -0.72262043
0.026301824 0.10369457 -0.72559249
0.030478692 0.10934151 -0.72480565
0.17746003 0.10599484 -0.72235566
-0.010511378 0.11375564 -0.72789192
-0.0082842847 0.11223662 -0.72417283
0.034700401 0.11592442 -0.72483152
-0.010029064 0.12739535 -0.72721207
-0.0092177279 0.1272489 -0.72609675
0.036518093 0.1250128 -0.72473544
-0.0088825766 0.13116272 -0.72395867
0.033125658 0.13493618 -0.72519881
-0.0049444004 0.14615348 -0.72164649
0.019287165 0.1469899 -0.72548467
0.024553346 0.14660129 -0.72468299
0.030582223 0.14202243 -0.72249627
-0.0032936074 0.15083319 -0.72053027
0.028038587 0.15185049 -0.72104627
0.03236115 0.15734816 -0.72450787
0.037915118 0.16129737 -0.7249456
0.044900227 0.1643499 -0.72501016
0.051998965 0.16849801 -0.72552663
0.056545105 0.17234096 -0.72550607
0.061778616 0.17754896 -0.72453159
0.065648705 0.18245754 -0.72329223
0.071364745 0.18910922 -0.72686946
0.049262326 0.26927 -0.72075158
0.054707382 0.26609612 -0.72425526
0.065783851 0.26243567 -0.72519606
0.074998312 0.26287666 -0.72510153
0.085324571 0.26715326 -0.72499114
0.091338634 0.26931036 -0.72848469
0.049554646 0.27080634 -0.72232085
0.051894315 0.27199879 -0.72680175
-0.42429942 -0.12011022 -0.711833
-0.42180774 -0.11919191 -0.71461874
-0.41357973 -0.11588583 -0.71578008
-0.40724817 -0.11432619 -0.71399385
-0.39720264 -0.11260583 -0.71555036
-0.38237169 -0.11277302 -0.71443182
-0.3738426 -0.1119205 -0.71514922
-0.36559772 -0.11112083 -0.71510738
-0.35524315 -0.11034678 -0.71481025
-0.34959611 -0.11000601 -0.71171737
-0.35106629 -0.10982201 -0.71751273
-0.3449685 -0.10922714 -0.71437395
-0.33513322 -0.10764138 -0.71525204
-0.32511058 -0.10668274 -0.71523666
-0.31434941 -0.10679444 -0.71559244
-0.30467644 -0.10667229 -0.71455783
-0.29543567 -0.1056998 -0.71457243
-0.28529465 -0.1046278 -0.71393818
-0.27404177 -0.10346584 -0.71505237
-0.26585755 -0.10248519 -0.71433663
-0.2551555 -0.10116759 -0.71440852
-0.24438789 -0.10095348 -0.71578985
-0.23498322 -0.10154544 -0.71464527
-0.22556458 -0.10079042 -0.71469772
-0.22192709 -0.099848203 -0.71722311
-0.21734837 -0.099189103 -0.71355265
-0.12668176 -0.090092637 -0.71033162
-0.11889269 -0.090001352 -0.71023023
-0.16309251 -0.088427074 -0.71526837
-0.15942687 -0.088589661 -0.71490401
-0.13079651 -0.089579269 -0.71525955
-0.12471119 -0.089676313 -0.71464306
-0.11406758 -0.089380607 -0.7141872
-0.10501152 -0.088674515 -0.71500033
-0.095422745 -0.087771691 -0.71367359
-0.085425526 -0.086503945 -0.71396446
-0.074637674 -0.085613057 -0.71386695
-0.064536393 -0.08528018 -0.71469647
-0.055525046 -0.084941439 -0.71549875
-0.04489233 -0.084203139 -0.71442628
-0.034847032 -0.083101265 -0.71384656
-0.026040716 -0.082026631 -0.71492958
-0.015487368 -0.081264146 -0.71451509
-0.0072424314 -0.080489866 -0.71558613
0.0012633988 -0.080693111 -0.71018302
-0.0021262623 -0.079331152 -0.71541744
0.0053130141 -0.075018041 -0.71551055
0.014005845 -0.070736207 -0.71417606
0.016302582 -0.06618882 -0.71467137
0.024093324 -0.064104326 -0.71462989
0.03589334 -0.063403048 -0.71590483
0.1874007 -0.061809868 -0.71274483
0.19460781 -0.061827201 -0.71440095
0.20356032 -0.060867302 -0.71253628
0.018159539 -0.055273838 -0.71592873
0.02198983 -0.053244825 -0.7124089
0.037059277 -0.056826621 -0.71504146
0.041679896 -0.054945711 -0.71515334
0.1762917 -0.052508902 -0.71312702
0.1837742 -0.05710616 -0.71617997
0.19464105 -0.05963973 -0.71935475
0.20641285 -0.059123311 -0.71649849
0.21442181 -0.05839612 -0.71529716
0.22405487 -0.057899628 -0.71548289
0.23616134 -0.056331366 -0.71494251
0.2420304 -0.054744892 -0.71411991
0.018608348 -0.042437438 -0.715554
0.023362244 -0.046127699 -0.71467716
0.039529249 -0.046805494 -0.7188977
0.04403666 -0.0452458 -0.71472955
0.052481338 -0.04171063 -0.71232861
0.14903955 -0.044267237 -0.71071243
0.1546842 -0.04238075 -0.7111913
0.16521664 -0.043442793 -0.71239203
0.17487076 -0.044240315 -0.71652985
0.018652812 -0.037388284 -0.71606791
0.024051916 -0.033522099 -0.71308368
0.036738623 -0.034463126 -0.71292591
0.0438722 -0.035627168 -0.71334791
0.053883243 -0.036280908 -0.7114566
0.15576398 -0.035398487 -0.71170658
0.16497177 -0.035481907 -0.71412551
0.17413524 -0.03552641 -0.71723837
0.025520623 -0.024924191 -0.71482927
0.032789469 -0.023904873 -0.71096063
0.043785572 -0.025765063 -0.71246135
0.054159991 -0.02400451 -0.71056616
0.15670796 -0.027255652 -0.71097952
0.16564901 -0.025149535 -0.7119844
0.17460001 -0.024626635 -0.71509564
0.017965727 -0.012606453 -0.71791065
0.024811121 -0.015168762 -0.71481979
0.033350073 -0.015569302 -0.71196598
0.045203637 -0.015065171 -0.71536332
0.055990834 -0.015647147 -0.71583664
0.061095618 -0.012292207 -0.71307766
0.16875651 -0.019184038 -0.71029913
0.17362997 -0.017791549 -0.7116735
0.015113655 -0.0052679651 -0.71434569
0.024400806 -0.0066104378 -0.71115071
0.032676168 -0.0095193451 -0.71233791
0.045418054 -0.0087789819 -0.7191875
0.056471795 -0.0061251493 -0.71752089
0.062711596 -0.0044590216 -0.71314281
0.0079442179 0.0044347136 -0.7156083
0.010961606 0.0014114227 -0.71184504
0.059634868 0.0013807091 -0.7186873
0.061987262 0.005087479 -0.71417725
0.0050316961 0.016145904 -0.71467358
0.062635981 0.014700999 -0.71522456
0.0079736775 0.023322284 -0.7146312
0.013390985 0.028100336 -0.71337366
0.03617736 0.028408835 -0.71533865
0.044853907 0.026918307 -0.7153849
0.055104114 0.024593947 -0.71551847
0.062732242 0.02294994 -0.71548826
0.017394878 0.033025082 -0.71643806
0.023830632 0.035975575 -0.71502769
0.031284198 0.030768137 -0.71524465
0.01903039 0.042714693 -0.71915752
0.024090465 0.044550352 -0.7151618
0.019428296 0.056415554 -0.7195552
0.022677092 0.055077534 -0.71466947
0.019035069 0.066411428 -0.71887016
0.022327041 0.065356269 -0.71436632
0.017495925 0.075412937 -0.71625662
0.021292787 0.074189849 -0.71197248
-0.0019530256 0.088637911 -0.71861517
0.0056029526 0.087205715 -0.71632677
0.015996533 0.083647572 -0.71474141
0.021873044 0.085898049 -0.71399289
-0.0037290778 0.095340565 -0.71596718
0.0026802025 0.093587726 -0.71200132
0.017016968 0.092092976 -0.7172392
0.024271816 0.094521761 -0.7167123
0.16883962 0.098825611 -0.7113511
-0.0049948222 0.10519617 -0.71683151
0.00063738367 0.10398298 -0.71161556
0.028353497 0.1035051 -0.71682835
0.030919716 0.10756001 -0.71450704
0.16859335 0.10546307 -0.71113199
0.17316946 0.1060685 -0.7157023
-0.0051499177 0.11278722 -0.71687746
0.034499954 0.11569754 -0.7147699
0.16917343 0.11242472 -0.71070939
0.17425831 0.11579397 -0.71260965
0.18060561 0.11919651 -0.71387935
-0.0053425771 0.12803353 -0.71398509
0.03835763 0.12489115 -0.71525294
0.17718381 0.12128264 -0.71105367
0.18259603 0.12237705 -0.71171719
-0.0045766397 0.13547179 -0.71419013
0.03562234 0.13507108 -0.71482837
-0.0043350309 0.1446331 -0.71643609
0.0014195574 0.1490857 -0.71082234
0.029393645 0.14851362 -0.7182138
0.031590145 0.14428037 -0.71448129
-0.0017418988 0.15441798 -0.71708757
0.0015356706 0.15401587 -0.71335661
0.029500475 0.1512042 -0.71844071
0.032737717 0.15527034 -0.71508199
0.038070384 0.16023514 -0.71716887
0.045217544 0.16323234 -0.71611571
0.052859064 0.16847642 -0.71504623
0.057941258 0.17345311 -0.71555519
0.061476637 0.1777515 -0.71589088
0.064928673 0.18322247 -0.7140606
0.069473214 0.19041234 -0.71145856
0.047140423 0.26483282 -0.7141825
0.052492343 0.26262754 -0.71682298
0.066972464 0.26215538 -0.7137661
0.075056732 0.26567021 -0.71409243
0.082782649 0.26872101 -0.7161693
0.079910643 0.27023095 -0.71055686
0.082171679 0.27037227 -0.71147221
-0.42626923 -0.12057652 -0.70478213
-0.42152303 -0.11954979 -0.7067306
-0.41349626 -0.11731263 -0.70613402
-0.40632737 -0.11535759 -0.7076866
-0.39228529 -0.11376993 -0.70270038
-0.38497999 -0.11309744 -0.70447576
-0.37445113 -0.11218507 -0.70516992
-0.365495 -0.11166433 -0.70497197
-0.35478628 -0.11102495 -0.70490694
-0.34761053 -0.110347 -0.70346624
-0.34353614 -0.10958533 -0.70559984
-0.33550715 -0.10842258 -0.70512593
-0.32463023 -0.10813598 -0.70465052
-0.31430656 -0.10878194 -0.70458871
-0.30620292 -0.10868715 -0.70380235
-0.2950213 -0.10712191 -0.70511228
-0.28549936 -0.10578098 -0.70468956
-0.2744447 -0.10448892 -0.7055735
-0.26543102 -0.10338302 -0.70519543
-0.25616297 -0.10233345 -0.70512682
-0.24577449 -0.10234097 -0.70577991
-0.23403719 -0.10317426 -0.70456207
-0.22390601 -0.10175614 -0.7057454
-0.2185747 -0.10054632 -0.70439583
-0.21454287 -0.099020384 -0.70501727
-0.2093516 -0.097040229 -0.70052153
-0.15310173 -0.090772294 -0.70183116
-0.14507861 -0.091354229 -0.70097351
-0.13250831 -0.091160998 -0.70251524
-0.12500134 -0.090736315 -0.70468241
-0.11617695 -0.090395473 -0.70379633
-0.16331138 -0.088979967 -0.70456344
-0.1575969 -0.089407258 -0.70631522
-0.11251909 -0.089865386 -0.70713907
-0.10519579 -0.089316688 -0.7057817
-0.0947548 -0.088297226 -0.70597863
-0.084528379 -0.087569796 -0.70504707
-0.074785657 -0.087139502 -0.7043941
-0.064950213 -0.086758673 -0.70531106
-0.055133615 -0.086145595 -0.70668566
-0.045198176 -0.085302405 -0.70553231
-0.034825284 -0.083873987 -0.70614111
-0.025356391 -0.08275044 -0.70576817
-0.015249329 -0.081840619 -0.70350254
-0.0043132179 -0.081389457 -0.70638496
0.0039907158 -0.081171416 -0.70406055
0.0081781233 -0.077980123 -0.70757478
0.014986191 -0.073317528 -0.7041024
0.022974702 -0.071790084 -0.70224082
0.035510138 -0.070066094 -0.7000609
0.0170487 -0.068408154 -0.707816
0.024971262 -0.065208629 -0.70593619
0.034661416 -0.063453078 -0.70420003
0.042081185 -0.062696718 -0.70354956
0.17685297 -0.06228555 -0.70268428
0.18453537 -0.064739116 -0.70514035
0.19453995 -0.065347791 -0.70431387
0.20456997 -0.062647477 -0.70532531
0.21405445 -0.060867585 -0.70548832
0.22309844 -0.060506299 -0.70265841
0.025924299 -0.055165209 -0.70782793
0.035005927 -0.056141529 -0.70736241
0.043454401 -0.053040229 -0.70476735
0.050218876 -0.051350825 -0.7003907
0.10671851 -0.051448807 -0.70103121
0.11415429 -0.051545985 -0.70114052
0.15690729 -0.051026735 -0.70152313
0.16572772 -0.053375289 -0.70357347
0.17360973 -0.056971565 -0.70555562
0.18079926 -0.059515495 -0.70914847
0.2175817 -0.059731893 -0.70882916
0.22542977 -0.059413094 -0.7063008
0.23527721 -0.057586342 -0.70371735
0.24412224 -0.055733681 -0.70464617
0.25047451 -0.055184472 -0.70409644
0.026629018 -0.04474235 -0.70877069
0.034871459 -0.04503024 -0.70740861
0.044529546 -0.046223793 -0.70390761
0.054370143 -0.04527998 -0.70458859
0.062252268 -0.045805231 -0.70151025
0.10551615 -0.045121554 -0.70186418
0.11523549 -0.044971623 -0.70381147
0.12401477 -0.043553434 -0.7022559
0.13643758 -0.04193626 -0.70083863
0.14584911 -0.043329533 -0.70776296
0.15497325 -0.047398522 -0.70592362
0.16282876 -0.048169043 -0.70810139
0.026201822 -0.037820574 -0.70905733
0.035599854 -0.034880266 -0.70731008
0.043466303 -0.033789806 -0.70400333
0.056493632 -0.037766241 -0.70554626
0.063973643 -0.033635456 -0.70411181
0.10715418 -0.037253458 -0.70092702
0.11520766 -0.035335582 -0.70192605
0.12473638 -0.034993865 -0.70143527
0.13499242 -0.034351941 -0.70190477
0.14509225 -0.033843454 -0.7067014
0.15080874 -0.034114216 -0.70970446
0.0364195 -0.025872227 -0.70880002
0.043925751 -0.025742071 -0.70485961
0.056939408 -0.023602443 -0.70782167
0.063575514 -0.024168819 -0.70252055
0.11690813 -0.028472364 -0.70040542
0.1254735 -0.025107516 -0.70057368
0.13501209 -0.024893349 -0.70243418
0.1447545 -0.025288133 -0.7060585
0.15387802 -0.023581194 -0.70890766
0.16167778 -0.021081435 -0.70965767
0.037062295 -0.013977443 -0.70830792
0.043077119 -0.015719 -0.70497835
0.059145089 -0.017217947 -0.7081877
0.064694017 -0.015433318 -0.70513082
0.073048785 -0.013899647 -0.70144433
0.11897535 -0.012263983 -0.70029777
0.12509018 -0.014866577 -0.70147973
0.13481008 -0.014408317 -0.70334005
0.14512834 -0.015148516 -0.70529121
0.15478274 -0.01489755 -0.70667547
0.16470312 -0.014768356 -0.70751208
0.17178778 -0.013071872 -0.70847738
0.018259348 -0.00097613677 -0.70937043
0.026137672 -0.0023723189 -0.70946014
0.035356432 -0.005617904 -0.70628792
0.041417617 -0.0045733792 -0.70157129
0.067592546 -0.0047826944 -0.70685494
0.074772261 -0.0048242901 -0.70171261
0.081066594 -0.0013537257 -0.70033979
0.11911278 -0.0074266591 -0.700158
0.12525985 -0.005185042 -0.70129716
0.13498397 -0.0049208221 -0.70300591
0.14499779 -0.0051748487 -0.70441574
0.15467712 -0.0047722794 -0.70384949
0.16500497 -0.0053519597 -0.70271999
0.1725494 -0.0042117396 -0.70270997
0.0080781225 0.008030151 -0.70806861
0.015992139 0.0056237658 -0.70577466
0.024790084 0.0050807041 -0.70479661
0.034861613 0.0051346142 -0.70270628
0.041196518 0.0016822732 -0.70077378
0.057148736 0.004741739 -0.70167637
0.065911807 0.0059929779 -0.70552486
0.074405037 0.0052575837 -0.70240033
0.081469595 0.0026638596 -0.70042324
0.12539476 0.0026059446 -0.70055127
0.13488017 0.0040006819 -0.70154434
0.14503179 0.0045012715 -0.70186585
0.15448202 0.0030325588 -0.7011615
0.16164991 0.00088527869 -0.7003299
0.17633978 0.0046299533 -0.70095664
0.007700955 0.014928848 -0.70732921
0.015182083 0.014633692 -0.70292789
0.024759596 0.014739351 -0.70137113
0.031416684 0.01352511 -0.70029235
0.058940914 0.014584444 -0.70165485
0.065436095 0.014167593 -0.70281363
0.073426507 0.014983472 -0.70198345
0.082004823 0.018348951 -0.70077068
0.17893782 0.013495577 -0.70066607
0.18205963 0.016880242 -0.70129913
0.0093057705 0.020341419 -0.70878583
0.015811382 0.023776405 -0.70676529
0.025110008 0.024546206 -0.70401645
0.034235194 0.025976328 -0.70188129
0.043924902 0.025816076 -0.70398432
0.056158595 0.021924147 -0.70543718
0.065542497 0.021391479 -0.70211172
0.075330347 0.022134105 -0.70114499
0.08222688 0.021873547 -0.7008068
0.026824977 0.033554006 -0.70823222
0.03562865 0.034874473 -0.70376271
0.04134696 0.035867311 -0.70075494
0.028158795 0.04676 -0.7075702
0.034632005 0.044681728 -0.70271266
0.040897913 0.041400373 -0.70063221
0.025813196 0.054329939 -0.70429945
0.031830858 0.050917763 -0.70100528
0.026174001 0.065595187 -0.70635182
0.031722855 0.067715377 -0.70190018
0.019992709 0.076991737 -0.70921797
0.025562353 0.076094382 -0.70342553
0.033284672 0.076240502 -0.70080543
0.017491894 0.086621992 -0.70473713
0.023921177 0.08318004 -0.70291692
0.035836518 0.083737344 -0.70041484
0.045225427 0.084228732 -0.70049959
0.055320639 0.085004158 -0.70043141
0.06335222 0.085598953 -0.70041233
0.1674749 0.088169612 -0.70150638
0.0071980143 0.096145257 -0.70550716
0.012846638 0.092448719 -0.70224941
0.033702679 0.097253114 -0.70024621
0.045746356 0.090056367 -0.70013672
0.058270663 0.090787798 -0.70010221
0.061489876 0.090726577 -0.70011383
0.16479617 0.094928376 -0.70409411
0.0049507879 0.1042093 -0.70529324
0.027813226 0.10596904 -0.7018978
0.032813881 0.10539024 -0.70317006
0.15914951 0.10596252 -0.70120233
0.16337214 0.10531691 -0.70566469
0.0032884646 0.11367989 -0.70626181
0.035789225 0.11417998 -0.70471597
0.042349163 0.11786868 -0.7032212
0.15789071 0.11536442 -0.70151997
0.16507225 0.11500488 -0.70665067
0.17043358 0.1189245 -0.70935684
-0.0013623796 0.1258339 -0.70686597
0.0018923831 0.12468965 -0.70259386
0.039641343 0.12784268 -0.70680469
0.042013507 0.12361876 -0.70377076
0.15788193 0.12319844 -0.70103168
0.16504629 0.12580968 -0.70325023
0.1745473 0.12569065 -0.70680547
0.18291017 0.12607826 -0.70734173
-0.0014603121 0.13430937 -0.70817965
0.0023479343 0.13376537 -0.70319343
0.03800191 0.13511543 -0.70493418
0.040075347 0.13159369 -0.70576411
0.16670105 0.13065743 -0.70055413
0.17638889 0.13141516 -0.70189989
0.18154708 0.1314431 -0.70190001
-0.0013389146 0.14206074 -0.70879185
0.003085573 0.14453682 -0.70521057
0.03399837 0.14421511 -0.70536721
0.0066718585 0.15114057 -0.70709038
0.034131613 0.15374063 -0.70491558
0.040100653 0.1592281 -0.7044791
0.045237966 0.16355887 -0.70556778
0.051219285 0.16840848 -0.70458013
0.05728532 0.17371564 -0.70454985
0.061220165 0.17808604 -0.7050637
0.065329239 0.1844075 -0.70574349
0.069601305 0.19065924 -0.70793653
0.043342352 0.25997347 -0.70292759
0.043354191 0.26088318 -0.7050758
0.059719216 0.26185051 -0.70259923
0.066391043 0.26397964 -0.70454794
0.072894149 0.26764613 -0.70641834
0.076654695 0.27135423 -0.70586878
0.081058778 0.27131888 -0.70862508
-0.43255958 -0.12180956 -0.6940105
-0.4277381 -0.12063301 -0.69341218
-0.42248085 -0.1194351 -0.69418395
-0.41526866 -0.11808854 -0.69342923
-0.40527773 -0.11634756 -0.69309151
-0.39474043 -0.11471943 -0.69453496
-0.38529518 -0.1136881 -0.69507378
-0.37504122 -0.11277591 -0.69446087
-0.36580819 -0.11237118 -0.69516474
-0.35414773 -0.11192982 -0.69432026
-0.34582156 -0.1108643 -0.69481838
-0.33852938 -0.11012276 -0.69212824
-0.31090057 -0.11019755 -0.69342744
-0.30906868 -0.11007699 -0.69184953
-0.34095788 -0.10979977 -0.69872648
-0.33528006 -0.10925554 -0.69630229
-0.32558259 -0.10891974 -0.69797599
-0.30492768 -0.10939502 -0.69594812
-0.29481426 -0.10783873 -0.6956988
-0.2861543 -0.10638215 -0.695364
-0.27479273 -0.10508553 -0.69512355
-0.26530951 -0.10393807 -0.69522387
-0.25558689 -0.1031096 -0.6952464
-0.24781598 -0.10315023 -0.69571453
-0.23281553 -0.10428625 -0.69503194
-0.22434798 -0.1031334 -0.69481856
-0.21668984 -0.10096182 -0.69464123
-0.21212678 -0.098869488 -0.69594699
-0.2074493 -0.096705213 -0.69502825
-0.16422018 -0.091889083 -0.69425511
-0.15466174 -0.092693381 -0.69438571
-0.14501479 -0.092391312 -0.69607574
-0.1351734 -0.092504837 -0.69441843
-0.12505016 -0.091862373 -0.69464529
-0.11501618 -0.091057085 -0.69453025
-0.10595047 -0.090299077 -0.69372135
-0.16592805 -0.089799516 -0.69887686
-0.10269252 -0.089699976 -0.69728142
-0.095019504 -0.089291826 -0.69571275
-0.085035607 -0.088761672 -0.69588357
-0.074594952 -0.088517398 -0.69466579
-0.065568492 -0.088014327 -0.695638
-0.055261686 -0.087344237 -0.69550645
-0.044898875 -0.086160325 -0.69500321
-0.035713095 -0.085000753 -0.69548947
-0.025069162 -0.083573587 -0.69575322
-0.013818658 -0.082083009 -0.69475663
-0.006600603 -0.082164258 -0.69418526
0.0055376706 -0.082804613 -0.69501722
0.013316217 -0.081465743 -0.69310194
0.016852191 -0.076818056 -0.69628364
0.025046494 -0.075345412 -0.69483066
0.034611952 -0.073689215 -0.69458103
0.042168971 -0.072604038 -0.69146973
0.16904886 -0.070307471 -0.69016171
0.17583917 -0.071293063 -0.6920144
0.18418874 -0.071394555 -0.6931985
0.19117665 -0.070041738 -0.69333768
0.021531042 -0.06964051 -0.69998658
0.037316252 -0.065976948 -0.69823635
0.044355985 -0.064714074 -0.69499654
0.051200666 -0.061987936 -0.69076937
0.095360123 -0.060611118 -0.69104475
0.10588381 -0.061183803 -0.69171023
0.11242623 -0.060726982 -0.69132954
0.15859869 -0.060678933 -0.69084167
0.16537064 -0.063168533 -0.69345462
0.17418541 -0.06572523 -0.69705945
0.18488853 -0.068825342 -0.69827139
0.19550197 -0.067607388 -0.69535762
0.20489839 -0.064672157 -0.69510949
0.21419995 -0.062794119 -0.69556379
0.22294617 -0.061180953 -0.69420075
0.046177037 -0.055619001 -0.69737786
0.055029947 -0.052746207 -0.69413084
0.065093376 -0.051089801 -0.6912787
0.075902082 -0.051994123 -0.69160891
0.085576683 -0.054719277 -0.69281447
0.09555456 -0.055896405 -0.69495964
0.10474775 -0.056718741 -0.69628626
0.11522924 -0.05662819 -0.69545716
0.12339697 -0.053270597 -0.69348156
0.14732867 -0.052521393 -0.6923182
0.15528074 -0.055408377 -0.69442713
0.16351223 -0.057515431 -0.69706219
0.22890358 -0.059606325 -0.69434845
0.23539655 -0.058313221 -0.69495124
0.24518068 -0.056958586 -0.69588315
0.255546 -0.056817647 -0.69544214
0.26167831 -0.057427984 -0.69268286
0.048101813 -0.044034895 -0.69839883
0.055260882 -0.044782151 -0.69367886
0.066047698 -0.045931332 -0.69410866
0.075217269 -0.044702265 -0.69512504
0.085100837 -0.044655077 -0.69614822
0.094879001 -0.045062184 -0.69801593
0.10059611 -0.043634001 -0.69970936
0.12691243 -0.045590322 -0.69703758
0.13299015 -0.044050101 -0.69561899
