# .PCD v0.7 - Point Cloud Data file format
VERSION 0.7
FIELDS x y z
SIZE 4 4 4
TYPE F F F
COUNT 1 1 1
WIDTH 1303
HEIGHT 1
VIEWPOINT 0 0 0 1 0 0 0
POINTS 1303
DATA ascii
0.089659996 -0.083867297 -0.92893046
0.091517508 -0.083935753 -0.92886883
0.093392491 -0.084012099 -0.92879856
0.094929382 -0.084028237 -0.92880869
0.096822038 -0.084108964 -0.92879486
0.098375812 -0.084133975 -0.92882878
0.099539973 -0.08408495 -0.92891949
0.10069408 -0.08402659 -0.92904085
0.10181882 -0.083972208 -0.92918563
0.10293978 -0.083900668 -0.92930222
0.10402913 -0.083817609 -0.92945045
0.10470885 -0.083633624 -0.9295997
0.10576475 -0.083535351 -0.92975479
0.10641198 -0.083322942 -0.92990315
0.10745128 -0.083208233 -0.93001866
0.10889638 -0.08320909 -0.93009818
0.10992698 -0.08309301 -0.93020397
0.11137483 -0.083088122 -0.93027818
0.11281338 -0.083092384 -0.93036067
0.11425824 -0.083093606 -0.93044549
0.11568802 -0.083104558 -0.9305619
0.11754906 -0.083211809 -0.93070817
0.11896515 -0.083219133 -0.93085939
0.12080637 -0.083322801 -0.93108243
0.12260743 -0.083425641 -0.93143272
0.12486951 -0.083621919 -0.9319157
0.12662983 -0.083712243 -0.93250507
0.12883072 -0.08389914 -0.93335217
0.13053705 -0.08399 -0.93418264
0.13219208 -0.084079914 -0.93515205
0.13429162 -0.084265843 -0.936499
0.13537464 -0.084258378 -0.93737316
0.13739665 -0.084441595 -0.93893522
0.13888021 -0.084528141 -0.94024968
0.14034183 -0.08461383 -0.9415738
0.14174964 -0.084698379 -0.94295591
0.14262426 -0.08469113 -0.94388348
0.14398688 -0.084766261 -0.94521338
0.14592177 -0.084938727 -0.94695532
0.14731757 -0.085023209 -0.94824117
0.14927369 -0.085199632 -0.95000052
0.15176401 -0.085483588 -0.95232809
0.1525822 -0.085465729 -0.95311314
0.15450877 -0.085652642 -0.95493281
0.15527245 -0.085642464 -0.95570117
0.15777013 -0.085934296 -0.95807695
-0.046232898 -0.081727549 -0.90130091
-0.044829614 -0.081715465 -0.90129554
-0.043959305 -0.081988536 -0.90148944
-0.042133246 -0.081769899 -0.90151083
-0.04086731 -0.08187113 -0.90172684
-0.03964489 -0.082014769 -0.9020198
-0.038701128 -0.082267731 -0.90231258
-0.037411381 -0.082360104 -0.90262747
-0.036556549 -0.082642414 -0.90292025
-0.035197377 -0.082713842 -0.90331274
-0.033984356 -0.082852423 -0.90369421
-0.03271348 -0.082970947 -0.90413076
-0.031386215 -0.083079524 -0.90450263
-0.030116331 -0.083216079 -0.90492678
-0.028577432 -0.083231665 -0.90535009
-0.027108559 -0.083306275 -0.90568966
-0.025545344 -0.083302923 -0.90603882
-0.023942558 -0.083302915 -0.90634978
-0.022409374 -0.083303466 -0.90657508
-0.020883413 -0.08330474 -0.90671533
-0.019336559 -0.083266094 -0.90680629
-0.017801153 -0.083194539 -0.90679818
-0.016306482 -0.083151691 -0.90676808
-0.01483243 -0.083101846 -0.90662378
-0.013363886 -0.083046444 -0.90643507
-0.011899567 -0.082948297 -0.90612906
-0.010437055 -0.08291997 -0.90590107
-0.0089543955 -0.082798965 -0.90551913
-0.0074675381 -0.082718939 -0.90518475
-0.0059779673 -0.08268556 -0.90493619
-0.0044691199 -0.082592726 -0.90460706
-0.0029850123 -0.082572803 -0.90440059
-0.0014877381 -0.082533725 -0.90416676
6.3638276e-05 -0.082438603 -0.90388626
0.0015277162 -0.082452834 -0.90373671
0.0030230465 -0.082432471 -0.90357983
0.0044881725 -0.082462758 -0.90350026
0.0059702131 -0.082445771 -0.90339828
0.007469086 -0.082435086 -0.90330166
0.008786181 -0.082544349 -0.90336627
0.010184748 -0.082592316 -0.90338051
0.01165537 -0.082595937 -0.90339977
0.012917869 -0.082691282 -0.9035238
0.014254264 -0.082728803 -0.90362006
0.015694585 -0.082735948 -0.90369904
0.017121049 -0.082749784 -0.90385216
0.018539278 -0.082767442 -0.90404826
0.01977862 -0.082792267 -0.90426821
0.021164231 -0.082812928 -0.90451044
0.022721628 -0.082832411 -0.904809
0.024079392 -0.082855128 -0.90513909
0.025887238 -0.082893081 -0.90556246
0.027485672 -0.082935169 -0.90603203
0.029093532 -0.082984202 -0.90655476
0.030703913 -0.083040796 -0.9071421
0.032595329 -0.083111867 -0.90791869
0.034499709 -0.083192281 -0.90880311
0.036413204 -0.083256423 -0.90972751
0.038011789 -0.083341941 -0.91056621
0.039911192 -0.083411425 -0.91158074
0.041809522 -0.08349558 -0.91268241
0.043360904 -0.083600454 -0.91367012
0.045227073 -0.083701581 -0.914882
0.046408672 -0.083828367 -0.91579843
0.047583174 -0.083950534 -0.9167369
0.048753031 -0.084052339 -0.91765732
0.049915854 -0.084146656 -0.91860491
0.050750289 -0.084198005 -0.91935968
0.05191768 -0.084263138 -0.92028981
0.053435035 -0.084360033 -0.92135787
0.054625355 -0.084409155 -0.92223006
0.055835288 -0.084448494 -0.92305398
0.05740561 -0.084536687 -0.92399359
0.059663378 -0.084725276 -0.92523474
0.060931165 -0.084759347 -0.92591715
0.062905096 -0.084893085 -0.92681336
0.064876765 -0.085024275 -0.92765093
0.06655781 -0.085089944 -0.92816317
0.068565287 -0.085194029 -0.92864537
0.069980882 -0.085205235 -0.92881638
0.071413614 -0.085214593 -0.9289512
0.073164612 -0.085268542 -0.9290688
0.074638873 -0.08527033 -0.92908221
0.076109491 -0.085273542 -0.92909074
0.077600539 -0.085279427 -0.9290759
0.079107568 -0.085286222 -0.92901021
0.080611967 -0.08528886 -0.92897511
0.082121111 -0.085296124 -0.9289254
0.083638139 -0.085298881 -0.92886198
0.085161112 -0.085308634 -0.92879909
0.086676784 -0.085317492 -0.92877096
0.088198133 -0.08532472 -0.92873222
0.089727707 -0.085342363 -0.9286871
0.091580667 -0.085402794 -0.92864543
0.093813665 -0.085524999 -0.92851907
0.095353082 -0.085543804 -0.92854172
0.09691862 -0.085579306 -0.92854738
0.098448649 -0.085600741 -0.92862159
0.099994808 -0.085640214 -0.92870128
0.10115387 -0.085597083 -0.92879236
0.10228591 -0.085531019 -0.92894238
0.10340524 -0.08546219 -0.92906982
0.10450937 -0.085385926 -0.929178
0.10516888 -0.08522445 -0.92938536
0.10623448 -0.085131213 -0.92951542
0.10728975 -0.085034341 -0.92963499
0.10834149 -0.084934577 -0.92972845
0.10937477 -0.084830254 -0.92985266
0.1108289 -0.084826045 -0.92993802
0.11186279 -0.084721178 -0.93004119
0.11331303 -0.084719151 -0.93010837
0.11476266 -0.084718801 -0.930197
0.11620472 -0.084723093 -0.93030703
0.11807378 -0.084822394 -0.93044502
0.11993175 -0.084923878 -0.93065655
0.12177581 -0.085020177 -0.93093848
0.12360399 -0.085117549 -0.93131042
0.12539621 -0.085213833 -0.93182236
0.12763281 -0.08540909 -0.93258095
0.12890993 -0.085401714 -0.93315411
0.13107595 -0.085600108 -0.93425751
0.13273095 -0.085692801 -0.93527448
0.13434903 -0.085783109 -0.93638313
0.1359169 -0.085871309 -0.93758428
0.13793257 -0.086065628 -0.93922639
0.13941246 -0.086147733 -0.94058174
0.14036942 -0.08612182 -0.94152218
0.14177299 -0.086200975 -0.94290632
0.14264731 -0.086173162 -0.94383144
0.14401789 -0.086250879 -0.94515258
0.14595689 -0.086437851 -0.94689798
0.1473667 -0.086516708 -0.94817626
0.14932603 -0.086704858 -0.94993824
0.15128879 -0.086893089 -0.9517144
0.15269826 -0.086977698 -0.95298028
0.15409282 -0.087062381 -0.95423919
0.15490343 -0.087044448 -0.95496786
0.15806721 -0.087457754 -0.95779514
-0.04473364 -0.08326783 -0.90190768
-0.043804817 -0.083447784 -0.90201813
-0.042477537 -0.083518617 -0.90212756
-0.04110866 -0.083535157 -0.90223473
-0.039797328 -0.083607629 -0.90241206
-0.038815305 -0.083811276 -0.9026472
-0.037505172 -0.083899781 -0.90291041
-0.036405519 -0.084059224 -0.90318131
-0.035232857 -0.084191911 -0.90347886
-0.033990353 -0.084305361 -0.90377539
-0.032692324 -0.084397711 -0.90412909
-0.03133944 -0.084475532 -0.90451252
-0.030046703 -0.084588841 -0.9048394
-0.028506679 -0.084605508 -0.90521711
-0.026954582 -0.084608391 -0.90555263
-0.025460193 -0.084656194 -0.90582335
-0.023863919 -0.084627621 -0.90609586
-0.022327835 -0.08463189 -0.90630412
-0.020808656 -0.084629096 -0.90643245
-0.019282637 -0.084626801 -0.90645206
-0.017770829 -0.084589258 -0.9064588
-0.016278358 -0.084539182 -0.90640986
-0.01481175 -0.084512129 -0.90625715
-0.013348695 -0.084462069 -0.90606129
-0.0118941 -0.084411584 -0.90579146
-0.010431777 -0.084324799 -0.90543783
-0.0089658722 -0.084291466 -0.90517128
-0.0074821459 -0.084184244 -0.90476483
-0.0060035493 -0.084152415 -0.90453058
-0.0045026396 -0.084077723 -0.90421218
-0.0030045339 -0.084038027 -0.90395945
-0.0015103347 -0.084003061 -0.90374601
-1.6983035e-05 -0.08397305 -0.90354991
0.0015426966 -0.083879106 -0.90327078
0.0029903599 -0.083903573 -0.90318137
0.0044959872 -0.083873063 -0.90301478
0.0059997919 -0.083849482 -0.90292984
0.0074167675 -0.083894767 -0.90288424
0.0089139389 -0.083886109 -0.90284401
0.010220495 -0.08399006 -0.90292656
0.011596362 -0.084039889 -0.9029935
0.012959077 -0.084096059 -0.90309459
0.014295352 -0.084134825 -0.90319812
0.015734365 -0.08414685 -0.90331191
0.017166771 -0.084162354 -0.90345961
0.018434986 -0.084192075 -0.90364397
0.019665835 -0.084219813 -0.90385902
0.021218766 -0.084231712 -0.90411735
0.022783086 -0.084254563 -0.90443289
0.024151247 -0.08428321 -0.90475768
0.025725016 -0.084318019 -0.90517676
0.027563877 -0.084361702 -0.90569335
0.028914059 -0.084405594 -0.90615445
0.030794233 -0.084465273 -0.90681601
0.032400101 -0.084527731 -0.90748447
0.03460522 -0.084599957 -0.90846127
0.036524244 -0.084654123 -0.90939063
0.038444918 -0.084713988 -0.91037452
0.040033124 -0.084797949 -0.91127187
0.041935116 -0.084881954 -0.91236967
0.043483172 -0.084990449 -0.91338676
0.045020431 -0.085097343 -0.91441566
0.046538651 -0.085213587 -0.91549355
0.04771452 -0.085342094 -0.91641682
0.048878942 -0.085455522 -0.91734695
0.0500395 -0.085562162 -0.91828501
0.051201355 -0.085654415 -0.91922057
0.052369267 -0.085739657 -0.92013866
0.05354337 -0.085812531 -0.92104501
0.055070434 -0.085910551 -0.92209071
0.05627434 -0.08596953 -0.92292243
0.058172937 -0.086099125 -0.92406386
0.05975122 -0.08619073 -0.92497724
0.061357096 -0.086276643 -0.92580968
0.06299632 -0.086354248 -0.92653686
0.064964801 -0.086475961 -0.92738044
0.066631302 -0.086547554 -0.92792404
0.068328351 -0.086609133 -0.92831004
0.070048131 -0.086660251 -0.92857319
0.07147143 -0.08667855 -0.92872441
0.07292638 -0.086686321 -0.92878503
0.074393339 -0.086696334 -0.92884308
0.075866833 -0.08670608 -0.92887098
0.07736405 -0.086709216 -0.92882228
0.079169765 -0.086739175 -0.92875981
0.080672607 -0.086748153 -0.92871374
0.082187466 -0.086753026 -0.92865628
0.0837036 -0.086763307 -0.92861468
0.084898151 -0.086728685 -0.92862004
0.086416453 -0.086734816 -0.92856616
0.087932654 -0.08674439 -0.92853498
0.089780308 -0.086805105 -0.92847991
0.091650143 -0.086881593 -0.9284113
0.093874857 -0.086997867 -0.92832643
0.095433727 -0.087032951 -0.9283222
0.096983217 -0.087047324 -0.92834657
0.098531395 -0.087078601 -0.92839468
0.10007358 -0.087114945 -0.92847246
0.10163673 -0.087154448 -0.92854244
0.10277925 -0.08709453 -0.92866349
0.10430717 -0.087123416 -0.92878371
0.10499723 -0.086974144 -0.92894775
0.10607601 -0.086896785 -0.92909145
0.10672796 -0.0867204 -0.92923719
0.10778144 -0.086626962 -0.92936575
0.10925769 -0.086627714 -0.9294464
0.11029141 -0.086530447 -0.92957771
0.11176238 -0.086529531 -0.92964995
0.11279321 -0.086429439 -0.92975116
0.11425789 -0.086428165 -0.92982554
0.11570159 -0.08642523 -0.92995495
0.11759713 -0.086524382 -0.93008029
0.11904086 -0.086523719 -0.93022192
0.1209058 -0.086622342 -0.93048596
0.12230494 -0.086619221 -0.93076158
0.12411618 -0.086716756 -0.93122804
0.12639421 -0.086927526 -0.93187785
0.12769273 -0.086917728 -0.93243283
0.12989749 -0.087133907 -0.93345296
0.13159901 -0.087235928 -0.93441457
0.13325931 -0.087333456 -0.93546516
0.13486546 -0.087422289 -0.93664277
0.13643189 -0.087509438 -0.93788284
0.13794348 -0.087591179 -0.93921059
0.13942276 -0.087670021 -0.94056469
0.14087082 -0.087746926 -0.94194102
0.14177878 -0.087706991 -0.94289303
0.14316297 -0.087780796 -0.94426262
0.14455242 -0.087856911 -0.94559807
0.14595944 -0.087936327 -0.94688606
0.14739528 -0.088013902 -0.94813454
0.14938621 -0.088208951 -0.94986403
0.15139955 -0.088407509 -0.95159352
0.15281093 -0.088493094 -0.9528563
0.15424214 -0.088580206 -0.95407969
0.15505871 -0.088555641 -0.95480394
0.1576917 -0.088877432 -0.95704395
-0.046610817 -0.085024461 -0.90290487
-0.044269647 -0.085234679 -0.90297335
-0.042421628 -0.085071936 -0.90279388
-0.041450039 -0.085254624 -0.90293175
-0.040048581 -0.085258283 -0.9029758
-0.03868809 -0.085280627 -0.90308642
-0.037377216 -0.085361555 -0.90329194
-0.036277656 -0.0855048 -0.90349966
-0.035282888 -0.085678063 -0.90372884
-0.03386249 -0.08571092 -0.90400445
-0.032557733 -0.085785262 -0.90429229
-0.031309523 -0.085893951 -0.90451705
-0.029873414 -0.085916184 -0.90484995
-0.028399289 -0.085902989 -0.90518957
-0.026859596 -0.085931532 -0.90543109
-0.025332082 -0.085978888 -0.9056502
-0.023795253 -0.085917495 -0.9058972
-0.022263896 -0.085996188 -0.90601802
-0.020744164 -0.085994698 -0.9061408
-0.019223386 -0.08595489 -0.90614581
-0.01771318 -0.085932873 -0.90615618
-0.016239079 -0.085929565 -0.90607822
-0.014780543 -0.08590094 -0.90591502
-0.013328418 -0.085849896 -0.9056567
-0.011877321 -0.085827366 -0.90542877
-0.010427621 -0.085760646 -0.9050473
-0.0089659905 -0.085708126 -0.90473425
-0.0074939448 -0.08565145 -0.90440607
-0.0060123438 -0.085589409 -0.90408516
-0.0045240419 -0.085552782 -0.90382558
-0.0030180851 -0.085484058 -0.90352213
-0.0015186568 -0.085439302 -0.90329254
-5.7713496e-06 -0.085379973 -0.90305644
0.001493065 -0.085356936 -0.90287626
0.0029963958 -0.085324101 -0.90270531
0.0045027528 -0.085289121 -0.9025569
0.0060081007 -0.085259654 -0.9024657
0.0074459305 -0.08529558 -0.90242404
0.0088561997 -0.085339926 -0.90245897
0.010254947 -0.085384198 -0.90248239
0.011637748 -0.085448839 -0.90256757
0.013003008 -0.085495189 -0.90264672
0.014336117 -0.085542411 -0.9028008
0.01578024 -0.085554697 -0.90290368
0.017070254 -0.085590251 -0.90307009
0.018331826 -0.085618645 -0.90323639
0.01971375 -0.085637614 -0.90346944
0.021093003 -0.085659251 -0.90372348
0.022649359 -0.085680619 -0.90403092
0.024000946 -0.08570984 -0.90437233
0.025571883 -0.08574412 -0.90476531
0.02715026 -0.085783646 -0.90522861
0.028736779 -0.085828699 -0.90574521
0.030319851 -0.085883558 -0.90634322
0.032491449 -0.085945554 -0.90717608
0.034402456 -0.086012065 -0.90802312
0.036314555 -0.086064614 -0.90893406
0.038238972 -0.086121313 -0.90990794
0.040160555 -0.086187609 -0.91094071
0.042062685 -0.086260885 -0.91204709
0.043610115 -0.086367108 -0.91308808
0.045482811 -0.08646787 -0.91430414
0.04666511 -0.086608507 -0.9152106
0.048187949 -0.086718455 -0.91628265
0.049344707 -0.086853847 -0.91722113
0.050496403 -0.086975433 -0.91816169
0.051659398 -0.087088577 -0.91909266
0.052824847 -0.087188609 -0.92000437
0.053998895 -0.087276854 -0.92089629
0.055188175 -0.087357059 -0.92175359
0.057059214 -0.087481163 -0.92298466
0.058619138 -0.087578349 -0.92393887
0.059858829 -0.087642543 -0.92466456
0.061463192 -0.08773008 -0.9254958
0.063086167 -0.0878122 -0.92627084
0.065067157 -0.087921038 -0.92707932
0.066398114 -0.087958626 -0.92753041
0.06809748 -0.088018641 -0.92794806
0.069504663 -0.088042773 -0.92817205
0.071247324 -0.088090762 -0.92838705
0.072693229 -0.088104121 -0.92849243
0.074462183 -0.08814317 -0.9285658
0.075939491 -0.088152334 -0.92856777
0.077429943 -0.088158995 -0.92855775
0.078919038 -0.088167913 -0.92856008
0.080424763 -0.088176735 -0.92852074
0.081937358 -0.088180289 -0.9284609
0.083448566 -0.08818762 -0.92841685
0.084962577 -0.088196166 -0.92836231
0.086479537 -0.088205047 -0.92833662
0.08799848 -0.088214189 -0.92829567
0.089854561 -0.088270932 -0.9282254
0.091719143 -0.088347353 -0.92818683
0.09360747 -0.088417724 -0.92812806
0.095503516 -0.088496663 -0.92811173
0.097066194 -0.088535056 -0.92814058
0.098614492 -0.088564508 -0.92820823
0.10016246 -0.088613838 -0.92826736
0.10172029 -0.088637561 -0.92833233
0.10326866 -0.088683121 -0.92844057
0.10438675 -0.088626966 -0.92858493
0.10549387 -0.088561118 -0.92872518
0.10615766 -0.08838661 -0.92886144
0.10764289 -0.088398971 -0.92900133
0.10826936 -0.088219337 -0.9291417
0.10931935 -0.088125035 -0.92924631
0.11079614 -0.088126138 -0.92932546
0.11226591 -0.088126235 -0.92942148
0.11330087 -0.088027075 -0.9295041
0.11520956 -0.088127419 -0.92959511
0.11666904 -0.088126831 -0.92971742
0.11810938 -0.088125415 -0.92989475
0.11955351 -0.088123694 -0.93005598
0.12141878 -0.088228531 -0.93036634
0.12327036 -0.088338368 -0.93077183
0.12509705 -0.088451535 -0.93130201
0.12643228 -0.088443071 -0.93179464
0.12867627 -0.088685863 -0.93272531
0.13041401 -0.088791505 -0.93361866
0.13210268 -0.088895343 -0.93465197
0.13374715 -0.088997431 -0.93577749
0.13535252 -0.089085236 -0.93699414
0.13690412 -0.089167893 -0.93828708
0.13842051 -0.089242481 -0.93963087
0.13990608 -0.089317605 -0.94100153
0.14086238 -0.089263916 -0.94195473
0.14226224 -0.089334637 -0.94336808
0.14366297 -0.089405693 -0.94473982
0.14506553 -0.089478441 -0.94607615
0.14650583 -0.08955583 -0.94735122
0.14740321 -0.089509316 -0.94812781
0.14941783 -0.089715384 -0.94982219
0.15204644 -0.090050764 -0.95200825
0.15291682 -0.090009026 -0.95275128
0.15437759 -0.090099618 -0.95394462
0.15523714 -0.090069674 -0.95462853
0.15794608 -0.090406895 -0.95680493
-0.046707857 -0.086668164 -0.90392613
-0.042891964 -0.086850859 -0.90381104
-0.041450713 -0.086845458 -0.90371734
-0.040048525 -0.086848497 -0.90369117
-0.038664557 -0.086859502 -0.90373558
-0.037562177 -0.086964116 -0.90382266
-0.036205087 -0.087008618 -0.90396291
-0.035173964 -0.087124094 -0.904055
-0.033896077 -0.087183833 -0.90425771
-0.032445505 -0.087204166 -0.9044981
-0.031226553 -0.087217592 -0.90473527
-0.029713836 -0.08724194 -0.90496475
-0.028240494 -0.087224662 -0.90522999
-0.026737276 -0.087198041 -0.90543759
-0.025208959 -0.087235734 -0.90559924
-0.023699103 -0.087217137 -0.90573359
-0.022163356 -0.08726389 -0.90585721
-0.020661568 -0.087287091 -0.90589714
-0.019158117 -0.087298371 -0.90590638
-0.017664736 -0.087310739 -0.90586501
-0.016197128 -0.087292783 -0.90573245
-0.014743116 -0.087281428 -0.90559638
-0.013305293 -0.087256417 -0.90532649
-0.011862298 -0.087226428 -0.90506399
-0.010418368 -0.087191477 -0.90472984
-0.0089659411 -0.087147146 -0.90438145
-0.0074993474 -0.087096609 -0.90403837
-0.0060286424 -0.0870644 -0.90377092
-0.0045410469 -0.087003693 -0.90344012
-0.0030377079 -0.086935408 -0.9031347
-0.0015528282 -0.08690685 -0.90293378
-5.6627108e-05 -0.086866364 -0.90271199
0.0014410288 -0.086828761 -0.90252745
0.0029456818 -0.086792402 -0.90234214
0.0044479021 -0.086763367 -0.90221083
0.0059440611 -0.0867327 -0.90209621
0.0073858686 -0.086759277 -0.90207613
0.0087990118 -0.086799957 -0.90210384
0.010290446 -0.086798884 -0.90208071
0.011683944 -0.086852014 -0.90216088
0.012928938 -0.0869359 -0.90230441
0.01437951 -0.086947508 -0.90239245
0.01569131 -0.086984798 -0.90251982
0.016973063 -0.087016523 -0.90267342
0.018222604 -0.087048136 -0.90285361
0.01960006 -0.087065779 -0.90306717
0.020964351 -0.087091058 -0.90332472
0.022312935 -0.087113068 -0.90361261
0.023852667 -0.087141618 -0.9039768
0.025410609 -0.087170146 -0.90437216
0.026980385 -0.087210812 -0.90482688
0.02856016 -0.087254904 -0.90532702
0.030139429 -0.087305382 -0.90590519
0.032298598 -0.087362945 -0.90673369
0.034196321 -0.0874267 -0.90757996
0.036106195 -0.087484606 -0.90848792
0.038349595 -0.087521471 -0.90958363
0.039943524 -0.087605476 -0.91048253
0.042178746 -0.087630227 -0.91173607
0.04374269 -0.087736733 -0.91274375
0.045606621 -0.087839432 -0.91399717
0.04679634 -0.087982215 -0.91489089
0.048313748 -0.088099316 -0.91598254
0.049820222 -0.088231333 -0.91710269
0.050982237 -0.088366583 -0.91802448
0.052138515 -0.088491015 -0.91894531
0.053646859 -0.088600561 -0.92004561
0.054469988 -0.088711485 -0.9207384
0.055997737 -0.08881446 -0.92178923
0.057540372 -0.088914521 -0.92278743
0.058752406 -0.089002781 -0.92356527
0.059981976 -0.089080818 -0.92431265
0.061578881 -0.089172073 -0.92516363
0.063199587 -0.0892573 -0.92594182
0.064837329 -0.089336529 -0.92664111
0.06616661 -0.089381911 -0.92710757
0.06787008 -0.089442469 -0.92755395
0.06927795 -0.089464106 -0.92778617
0.071015187 -0.089514501 -0.92805481
0.072453767 -0.089534454 -0.92818481
0.074232168 -0.089574173 -0.92826116
0.075704612 -0.089582182 -0.92829639
0.077194519 -0.089589931 -0.92829275
0.078675002 -0.089600153 -0.92830944
0.080502756 -0.089633614 -0.92821342
0.082002364 -0.089646012 -0.92819989
0.083521381 -0.089650795 -0.92815053
0.08502356 -0.089657076 -0.92812258
0.08654625 -0.08967036 -0.92808491
0.088066131 -0.089680798 -0.92804617
0.089575395 -0.089693248 -0.92805421
0.091444954 -0.089759573 -0.92798978
0.09367016 -0.08989542 -0.92792284
0.095222183 -0.089923002 -0.92792344
0.09714517 -0.090021834 -0.92792743
0.098694906 -0.0900639 -0.92800248
0.10024708 -0.090103425 -0.92809862
0.10180413 -0.090134852 -0.92817008
0.10335402 -0.090180449 -0.92827696
0.10446712 -0.090128198 -0.92840517
0.10557064 -0.090057075 -0.92853248
0.10622073 -0.089886904 -0.92869353
0.10728595 -0.089803569 -0.92881864
0.10877656 -0.089812495 -0.92890352
0.10982302 -0.089718789 -0.92901599
0.11130922 -0.089722425 -0.92908406
0.1123364 -0.089624301 -0.92920417
0.11380848 -0.089626081 -0.92929518
0.11573069 -0.089735419 -0.92938
0.11674001 -0.089626908 -0.92950505
0.11862685 -0.089738198 -0.92973912
0.12050148 -0.089856364 -0.93006474
0.12238517 -0.089985803 -0.93042046
0.12377583 -0.089982428 -0.93079442
0.12560397 -0.090110041 -0.93138957
0.12740004 -0.090236194 -0.93211454
0.12916863 -0.090362698 -0.93294919
0.13089472 -0.090475917 -0.93391848
0.13256846 -0.090583809 -0.93500447
0.13420987 -0.090673238 -0.93615937
0.13579428 -0.090757616 -0.9374398
0.13735379 -0.090836056 -0.93874854
0.13887724 -0.090909459 -0.94009709
0.13987681 -0.090844966 -0.94104946
0.14131916 -0.090913787 -0.94246197
0.14273046 -0.090979673 -0.94388437
0.14414325 -0.091047376 -0.94526118
0.14558515 -0.091119952 -0.94656903
0.14650585 -0.091060266 -0.9473539
0.14796481 -0.091140151 -0.94859344
0.15002504 -0.091357417 -0.9502719
0.1521126 -0.091577776 -0.95193487
0.15300313 -0.091530383 -0.95265216
0.15449771 -0.091619566 -0.95383406
0.15536708 -0.09158121 -0.95451766
0.15815659 -0.091940314 -0.95660096
-0.046987757 -0.088442959 -0.90533149
-0.04553112 -0.088441014 -0.90516442
-0.04153084 -0.088476308 -0.90468913
-0.040138531 -0.088499442 -0.90462309
-0.03872535 -0.088500589 -0.90454078
-0.037578408 -0.088550374 -0.90453625
-0.036196541 -0.088571601 -0.90458709
-0.034967847 -0.088603586 -0.90460098
-0.033811752 -0.088641301 -0.90466309
-0.032449365 -0.088645838 -0.90481377
-0.031036265 -0.088640764 -0.9049654
-0.029625732 -0.08857853 -0.90511793
-0.028153809 -0.088570721 -0.90527427
-0.026640106 -0.088536337 -0.9054265
-0.025109524 -0.088553421 -0.90554166
-0.023591669 -0.08851175 -0.90564442
-0.022075141 -0.088577613 -0.90567356
-0.020574043 -0.088521987 -0.90570301
-0.019082386 -0.088592656 -0.90567577
-0.017605759 -0.08859273 -0.90560424
-0.016145933 -0.088634767 -0.90546644
-0.014704825 -0.088649906 -0.90525848
-0.01325058 -0.088637218 -0.90508997
-0.011837888 -0.088630185 -0.90473485
-0.010401105 -0.088610359 -0.90442586
-0.0089601912 -0.088577949 -0.9040606
-0.0075060194 -0.088539362 -0.90371221
-0.0060379584 -0.088497601 -0.90338403
-0.004559041 -0.088460095 -0.90312093
-0.0030727792 -0.088403136 -0.90280086
-0.0015795657 -0.088362344 -0.90257239
-9.2587492e-05 -0.088322841 -0.90236378
0.0014021103 -0.088291951 -0.90216887
0.0029018256 -0.088254936 -0.90199864
0.004391016 -0.088228241 -0.9018684
0.0058902903 -0.088195994 -0.9017424
0.007331375 -0.088229723 -0.90175122
0.0088247433 -0.088226616 -0.90171182
0.010232619 -0.088261038 -0.9017536
0.011506297 -0.088336356 -0.90187103
0.012966285 -0.088342175 -0.90192008
0.014298495 -0.088376984 -0.902008
0.015470554 -0.088433348 -0.90213817
0.016872384 -0.088446528 -0.90229338
0.018111378 -0.088481359 -0.90246105
0.019478494 -0.088497497 -0.90268034
0.020839175 -0.08852189 -0.90290946
0.022370698 -0.088544078 -0.90324372
0.023712093 -0.088573225 -0.90356338
0.02524947 -0.088605337 -0.90396935
0.026808111 -0.088640727 -0.90441936
0.028376069 -0.088685438 -0.90492648
0.029956302 -0.088733323 -0.90547389
0.031810775 -0.088791236 -0.90621018
0.033999339 -0.088839002 -0.90711671
0.035900109 -0.088901907 -0.90802801
0.038129594 -0.088935979 -0.90913862
0.040049832 -0.088987753 -0.91015619
0.042305887 -0.089009918 -0.91142094
0.043865364 -0.089115225 -0.91242814
0.045745254 -0.089202747 -0.91366971
0.04727947 -0.089322783 -0.91473824
0.048792034 -0.08945626 -0.91584849
0.050309766 -0.089578487 -0.91695458
0.05147073 -0.089719877 -0.91786861
0.052274629 -0.089878783 -0.91859692
0.053789921 -0.089991674 -0.91968292
0.05495628 -0.090113856 -0.92055362
0.056137688 -0.090226322 -0.92141211
0.057679236 -0.090332434 -0.92241895
0.058881003 -0.090432979 -0.92322046
0.060111687 -0.090518028 -0.9239496
0.06135536 -0.090595163 -0.92465746
0.062975414 -0.090678364 -0.92544246
0.064274155 -0.090735763 -0.92601103
0.065946609 -0.090803064 -0.92662871
0.067643009 -0.090862513 -0.92712474
0.069028735 -0.090896398 -0.92744356
0.070784181 -0.09093868 -0.92768973
0.072216414 -0.0909575 -0.92785901
0.073681876 -0.090969756 -0.9279303
0.075472109 -0.091007113 -0.92799723
0.076945677 -0.091016762 -0.92804509
0.078756459 -0.091051593 -0.92800689
0.080253474 -0.091060534 -0.92799383
0.081747897 -0.091072515 -0.92799604
0.083586171 -0.091124296 -0.92788911
0.084766351 -0.091090389 -0.92790657
0.086618617 -0.091140062 -0.92782313
0.088131025 -0.091147147 -0.92781204
0.089650072 -0.091168493 -0.92781174
0.091516748 -0.091238186 -0.92777431
0.093390673 -0.091310687 -0.92774683
0.095302679 -0.091402702 -0.92773098
0.096846089 -0.09143877 -0.92777419
0.098391138 -0.091472618 -0.92783493
0.10033917 -0.091607377 -0.92791116
0.10147434 -0.091560818 -0.92805582
0.10259346 -0.091503412 -0.92817521
0.10453989 -0.09164013 -0.92826611
0.10521431 -0.091467582 -0.92839766
0.10628819 -0.091388606 -0.92852992
0.10735484 -0.09130206 -0.92864138
0.10884514 -0.09131097 -0.9287287
0.11032965 -0.091324367 -0.92882824
0.11136188 -0.091223754 -0.92894179
0.11284492 -0.091230698 -0.92902011
0.11431987 -0.091237187 -0.92912602
0.11624368 -0.091362856 -0.929268
0.1176948 -0.091372766 -0.92946064
0.11912923 -0.09137395 -0.92969501
0.12101603 -0.091512777 -0.9300555
0.12241659 -0.091513246 -0.93039185
0.12425907 -0.091652349 -0.93095255
0.12609208 -0.09179014 -0.93159133
0.12787436 -0.091927588 -0.93238086
0.12960789 -0.092048883 -0.93333691
0.13084915 -0.092010252 -0.93404567
0.1325209 -0.092110164 -0.93513358
0.13462535 -0.09234935 -0.93665731
0.13621092 -0.092435896 -0.93793893
0.13776721 -0.092508778 -0.93927723
0.13880742 -0.092437923 -0.94021773
0.14029132 -0.092507541 -0.94161069
0.14173263 -0.092572376 -0.94305271
0.14315939 -0.092635505 -0.94447267
0.14461361 -0.092703857 -0.94580972
0.14553577 -0.092631549 -0.94664067
0.14701758 -0.092708424 -0.94788015
0.14851582 -0.092789508 -0.9490934
0.1506144 -0.093017355 -0.9507367
0.15213531 -0.093102723 -0.95191622
0.15365793 -0.093190663 -0.9530853
0.1551939 -0.093280345 -0.95423704
0.15547806 -0.093101084 -0.95442426
0.15830788 -0.093471602 -0.95646548
-0.046307366 -0.089783266 -0.90196735
-0.045421921 -0.08997298 -0.90453088
-0.044703297 -0.090201221 -0.90649235
-0.041750059 -0.090192497 -0.9059934
-0.04029873 -0.090190478 -0.9057579
-0.038885809 -0.090199277 -0.90559381
-0.037461638 -0.090190537 -0.905424
-0.036262468 -0.09019535 -0.90536433
-0.034990147 -0.090181455 -0.90528756
-0.033775855 -0.090144567 -0.90524888
-0.03238209 -0.090111375 -0.90524119
-0.030953115 -0.090081297 -0.90526038
-0.029516423 -0.089996293 -0.9053328
-0.028030116 -0.089947529 -0.90540415
-0.02653292 -0.08986894 -0.90545934
-0.02500337 -0.089879893 -0.90553486
-0.023488529 -0.089848109 -0.90557575
-0.02198384 -0.089852393 -0.90555519
-0.020493543 -0.089861631 -0.90552992
-0.019001821 -0.089868225 -0.90548027
-0.017530756 -0.089874014 -0.90537792
-0.016090544 -0.089914441 -0.90519989
-0.014658133 -0.089952476 -0.90499061
-0.013224398 -0.089997128 -0.90476245
-0.011805898 -0.090017214 -0.90444255
-0.010375809 -0.090014733 -0.90413928
-0.0089470446 -0.089999802 -0.90378827
-0.0075035868 -0.089972943 -0.90341705
-0.006048189 -0.089940682 -0.90306556
-0.0045741242 -0.089900829 -0.90278351
-0.0030938745 -0.089861684 -0.90249074
-0.0016142905 -0.089825109 -0.90226209
-0.00012943461 -0.089785211 -0.90205175
0.0013574165 -0.089748845 -0.9018535
0.0028465288 -0.089718349 -0.90169197
0.0043384079 -0.089702569 -0.90155774
0.0058440315 -0.089675315 -0.9014495
0.0073519191 -0.089665048 -0.90138721
0.0087704044 -0.08968614 -0.90139514
0.01016337 -0.089715883 -0.90144795
0.01153911 -0.089744501 -0.9014957
0.012890707 -0.089773722 -0.90155107
0.014212746 -0.089809395 -0.90166533
0.015511135 -0.089841247 -0.901766
0.016783029 -0.089877754 -0.90190518
0.017996538 -0.089910001 -0.90208632
0.019367615 -0.089933023 -0.9022817
0.020702884 -0.089957021 -0.9025293
0.022233384 -0.089972697 -0.90282857
0.023553161 -0.090005338 -0.90315193
0.025102109 -0.090033621 -0.90354323
0.026395245 -0.090076283 -0.90394449
0.028202506 -0.090114534 -0.90448999
0.029771358 -0.090162762 -0.9050405
0.031905364 -0.090211928 -0.90587318
0.033491664 -0.090275206 -0.90657198
0.035692234 -0.090316974 -0.90756434
0.037591651 -0.090372369 -0.90852517
0.039834626 -0.090400808 -0.90968722
0.042419102 -0.090394281 -0.91109914
0.043985337 -0.0904916 -0.91212267
0.045882512 -0.090563238 -0.91333485
0.047416627 -0.090678737 -0.91441834
0.048935391 -0.09080445 -0.91551089
0.05045785 -0.090935566 -0.91661191
0.051610626 -0.09108761 -0.91751236
0.052769013 -0.091230161 -0.91841155
0.053934462 -0.091369696 -0.91930044
0.054757617 -0.091505222 -0.91996753
0.055930302 -0.091626331 -0.92083347
0.057475138 -0.091731295 -0.92184025
0.058686677 -0.091835611 -0.92261589
0.059915304 -0.091928743 -0.92334944
0.061502725 -0.092022359 -0.9242357
0.062769748 -0.09209764 -0.92487657
0.064066932 -0.092161678 -0.92544854
0.065374278 -0.092219703 -0.92601097
0.067069732 -0.092278399 -0.92658305
0.068805538 -0.092325278 -0.92698926
0.070563354 -0.09236826 -0.92727882
0.072311558 -0.092406377 -0.92751825
0.073764905 -0.092425466 -0.9276256
0.075227872 -0.092438124 -0.92770118
0.076710321 -0.092445105 -0.92772329
0.078521028 -0.092480011 -0.9277181
0.080334552 -0.092518941 -0.92769247
0.081832334 -0.092531696 -0.92769217
0.083326191 -0.092534997 -0.92768198
0.084846608 -0.092551865 -0.92764044
0.086356521 -0.092561878 -0.92762423
0.087856941 -0.092572138 -0.92763883
0.089719817 -0.092640243 -0.92757946
0.091230929 -0.092658259 -0.92759967
0.093102142 -0.092731968 -0.92759883
0.095008291 -0.092824012 -0.9275766
0.096544437 -0.09286993 -0.92765313
0.098080993 -0.092900358 -0.92771566
0.09961354 -0.092934646 -0.92781061
0.10114428 -0.092968017 -0.92790264
0.10266978 -0.09300933 -0.92803395
0.10376737 -0.092941582 -0.92816669
0.10527793 -0.092969209 -0.92827326
0.10634281 -0.092898674 -0.92842364
0.10740799 -0.092806429 -0.92851865
0.10889687 -0.09281604 -0.92860579
0.10993601 -0.092722163 -0.92871475
0.11141405 -0.092726529 -0.92881238
0.11288978 -0.092736892 -0.92891872
0.11481114 -0.092865855 -0.92907631
0.11627682 -0.092876598 -0.92922604
0.11772037 -0.092885025 -0.92943257
0.11914724 -0.092890389 -0.9296903
0.12103304 -0.093035407 -0.93006331
0.12241983 -0.093033396 -0.93045074
0.124249 -0.093176998 -0.9310354
0.12605916 -0.093316905 -0.9317323
0.12782152 -0.093450397 -0.93257493
0.12954766 -0.093569599 -0.93351388
0.13078249 -0.093526267 -0.93422163
0.132907 -0.093781717 -0.93565595
0.13453004 -0.093872882 -0.93685615
0.13658985 -0.094105095 -0.93850619
0.13766427 -0.094031408 -0.93945295
0.13870913 -0.093953393 -0.94038928
0.14018407 -0.094022013 -0.94179243
0.14212164 -0.094235517 -0.94369322
0.14359854 -0.09430223 -0.94504899
0.14453624 -0.094218098 -0.94591862
0.14546447 -0.094139554 -0.94674462
0.14695893 -0.094219133 -0.94796789
0.14904419 -0.094452724 -0.94961464
0.15060204 -0.094539501 -0.95076174
0.15212096 -0.094625995 -0.95194227
0.15368176 -0.094716556 -0.95307124
0.15524471 -0.094809003 -0.95419538
0.15617928 -0.094760567 -0.95483494
0.15840109 -0.095002726 -0.95638686
-0.044774655 -0.091740966 -0.90079266
-0.043543894 -0.09169586 -0.90143663
-0.042403739 -0.091689371 -0.90236992
-0.041339971 -0.091704756 -0.90365982
-0.040476602 -0.091788821 -0.90602422
-0.039048165 -0.09192168 -0.90652508
-0.037825812 -0.091869093 -0.90653515
-0.036390562 -0.091863364 -0.90628934
-0.03507622 -0.091809705 -0.90609998
-0.033773713 -0.091682844 -0.90592122
-0.032311484 -0.091680102 -0.90585864
-0.030914109 -0.091485687 -0.90566885
-0.029420834 -0.091497481 -0.90564317
-0.027943024 -0.091323368 -0.90555155
-0.026437346 -0.09127868 -0.90553468
-0.024904717 -0.091220707 -0.90555245
-0.023390608 -0.091164127 -0.90551466
-0.021890264 -0.091106132 -0.9054473
-0.020390792 -0.091113381 -0.90540409
-0.018913293 -0.091130242 -0.90531188
-0.017474189 -0.09119276 -0.90513957
-0.016004592 -0.09119989 -0.90500438
-0.014578062 -0.091270506 -0.9048022
-0.013163665 -0.091328502 -0.90452105
-0.011758034 -0.091362953 -0.90422851
-0.010345352 -0.091388367 -0.90390259
-0.0089449035 -0.091421187 -0.90347403
-0.0074953809 -0.091395006 -0.9031505
-0.0060495404 -0.091372177 -0.90279388
-0.0045868545 -0.091340989 -0.90251046
-0.0031164039 -0.091303356 -0.90219986
-0.0016337477 -0.091260791 -0.90189409
-0.00015937211 -0.091248035 -0.90177315
0.0013263134 -0.091220297 -0.90157801
0.0028480543 -0.091164105 -0.90135151
0.0043013995 -0.091177881 -0.90129358
0.0057963869 -0.091152579 -0.90118569
0.0072847139 -0.09113086 -0.90109766
0.0087025724 -0.091144785 -0.90111887
0.010096031 -0.091156721 -0.90113747
0.011464712 -0.091183327 -0.90118831
0.012810339 -0.091208056 -0.90123391
0.014131117 -0.091235965 -0.90129888
0.015289421 -0.091290817 -0.90141994
0.016679345 -0.091300733 -0.90152997
0.01789638 -0.091339871 -0.90170091
0.019241571 -0.091367505 -0.90189105
0.020759778 -0.09137883 -0.90216756
0.022089409 -0.091406472 -0.90242839
0.023409238 -0.091445543 -0.90274799
0.024942955 -0.091468573 -0.90312868
0.026230207 -0.091514342 -0.90352225
0.027771261 -0.091550641 -0.90399319
0.029590087 -0.091596872 -0.90459991
0.031431004 -0.091645211 -0.90532076
0.033291645 -0.091701478 -0.90612584
0.035180423 -0.091754936 -0.90696865
0.037390292 -0.091790304 -0.9080345
0.039277125 -0.091855258 -0.90908968
0.04186327 -0.091841899 -0.91044647
0.043771747 -0.091895811 -0.91161913
0.045664113 -0.091967471 -0.91282779
0.047201697 -0.09207835 -0.91388828
0.049083248 -0.092155859 -0.91516393
0.050245654 -0.09231776 -0.91606498
0.051400956 -0.092472859 -0.91696036
0.052562233 -0.09261702 -0.91784084
0.05337365 -0.092783511 -0.91853714
0.054543752 -0.09291742 -0.91940892
0.055726688 -0.093039989 -0.92025644
0.056923982 -0.093155526 -0.92106873
0.058483209 -0.093253419 -0.92202985
0.059705026 -0.093353696 -0.92278212
0.061304756 -0.093438081 -0.92363554
0.062572204 -0.093521647 -0.92427552
0.064193361 -0.093600824 -0.92506999
0.065509796 -0.093664058 -0.92559063
0.066847563 -0.093717098 -0.92606783
0.068565026 -0.0937659 -0.92656553
0.070315972 -0.093803592 -0.92691004
0.072084583 -0.093835935 -0.92713958
0.073859677 -0.093865648 -0.92729312
0.075325526 -0.093880698 -0.92735302
0.076799572 -0.093893878 -0.92738807
0.078601383 -0.093926415 -0.92742282
0.08009395 -0.0939404 -0.92742878
0.081908755 -0.093981363 -0.92740953
0.083419129 -0.093995988 -0.92737305
0.084919177 -0.094010532 -0.92737454
0.086423576 -0.094027333 -0.9273814
0.087592192 -0.094002515 -0.92741966
0.08943627 -0.094055653 -0.92741531
0.09095449 -0.094072834 -0.92740583
0.09282127 -0.094149902 -0.92740917
0.094334029 -0.094182298 -0.92748255
0.096229479 -0.09428551 -0.9275223
0.097363174 -0.094236478 -0.92762262
0.098881535 -0.094267413 -0.92771149
0.10038648 -0.094293796 -0.92782331
0.1019043 -0.094327919 -0.92793715
0.10383576 -0.094453111 -0.92804915
0.10490077 -0.094375215 -0.92818493
0.10596668 -0.094290771 -0.92830378
0.10745039 -0.094307892 -0.92842525
0.10893612 -0.094321452 -0.92852902
0.10997018 -0.094223604 -0.92864084
0.11144446 -0.094235286 -0.92875743
0.1129167 -0.094242774 -0.92887551
0.11482452 -0.094380148 -0.92909801
0.11627367 -0.094389297 -0.92929453
0.11771918 -0.094396494 -0.92948407
0.1191439 -0.094402254 -0.92975152
0.12100131 -0.094545417 -0.93021226
0.12238122 -0.094543606 -0.93059677
0.12420452 -0.094687164 -0.93121231
0.12597874 -0.094825812 -0.93197787
0.12774123 -0.094955072 -0.93279624
0.12946045 -0.095076405 -0.93373775
0.13114223 -0.095187262 -0.934789
0.13278918 -0.095288754 -0.93590724
0.13441142 -0.095380992 -0.93709409
0.13647145 -0.095622204 -0.93872803
0.13755405 -0.095544241 -0.93965071
0.13858975 -0.095460676 -0.94060022
0.14053778 -0.095683828 -0.9424752
0.14201172 -0.095748924 -0.94385928
0.14348885 -0.095815226 -0.94520271
0.14443851 -0.095727682 -0.94605893
0.14592816 -0.095803067 -0.94731796
0.14743418 -0.095882617 -0.94854116
0.14897977 -0.095968835 -0.94970697
0.15113385 -0.096211582 -0.9512946
0.15209542 -0.09614718 -0.95198685
0.15364963 -0.096238755 -0.9531256
0.15522353 -0.096333206 -0.95423597
0.15618002 -0.0962824 -0.95486122
0.15845558 -0.096533723 -0.95634961
-0.045279149 -0.093836695 -0.90024817
-0.044003353 -0.093775608 -0.90072143
-0.042744678 -0.093700044 -0.9013195
-0.041523658 -0.093680955 -0.90194154
-0.040259052 -0.093859576 -0.90271533
-0.039019309 -0.093801759 -0.90355271
-0.037703138 -0.093734078 -0.90403777
-0.036460575 -0.093536861 -0.90484977
-0.035145398 -0.093367398 -0.90569663
-0.033774849 -0.093243197 -0.90630966
-0.032336969 -0.093243904 -0.90649539
-0.030861035 -0.093054116 -0.90624595
-0.029358497 -0.092890784 -0.90599453
-0.027848855 -0.092745431 -0.9058342
-0.026321432 -0.092678487 -0.90576231
-0.024800105 -0.092556447 -0.90558755
-0.02329476 -0.092508994 -0.90550691
-0.021777691 -0.092439488 -0.90542269
-0.020300677 -0.092457771 -0.90530688
-0.018837906 -0.092487648 -0.90515
-0.017375328 -0.092500135 -0.90496695
-0.015931889 -0.092557505 -0.90483415
-0.014528132 -0.09263023 -0.90456635
-0.013106697 -0.092640072 -0.90429437
-0.011708993 -0.09271735 -0.90397978
-0.010305882 -0.092752449 -0.90365243
-0.0089173829 -0.092819631 -0.90328109
-0.0074972184 -0.092829414 -0.90290558
-0.0060439338 -0.092802778 -0.90257061
-0.0045982813 -0.092789985 -0.90222198
-0.003126116 -0.092757039 -0.90193814
-0.0016517621 -0.09273196 -0.90164936
-0.0001656942 -0.092700273 -0.90144563
0.0013257327 -0.092666291 -0.90125531
0.0028184813 -0.092633322 -0.90108609
0.0042569637 -0.092621587 -0.9010095
0.0057393038 -0.092601195 -0.900913
0.0072257402 -0.092583723 -0.90083456
0.0086380821 -0.092591755 -0.90083784
0.010026066 -0.092599884 -0.90084517
0.011392115 -0.092615813 -0.90087503
0.012733967 -0.092636116 -0.90090972
0.014050394 -0.092662178 -0.900967
0.015333003 -0.092693299 -0.90106958
0.01658068 -0.092729516 -0.90119368
0.017784998 -0.092767462 -0.90134019
0.01912972 -0.092797816 -0.90152472
0.020440923 -0.092824556 -0.90174073
0.021755189 -0.092860848 -0.90200716
0.023035364 -0.092890047 -0.90230894
0.024551094 -0.09291964 -0.90267962
0.026074419 -0.092945948 -0.90309972
0.027592599 -0.092992991 -0.90357739
0.029137496 -0.09303388 -0.90409923
0.03095478 -0.093087666 -0.9047938
0.03279575 -0.093141995 -0.9055751
0.034664489 -0.093198314 -0.90640461
0.03685765 -0.093239449 -0.90744805
0.039069731 -0.093269691 -0.9085815
0.040966503 -0.09332785 -0.90965301
0.04286484 -0.093390927 -0.91078985
0.045101173 -0.093410052 -0.91213387
0.04628868 -0.093553156 -0.91300917
0.048164561 -0.093624368 -0.91423476
0.04933295 -0.093774028 -0.91512918
0.050499074 -0.093922779 -0.91600496
0.051652737 -0.094069146 -0.91690499
0.053172939 -0.09418533 -0.91795826
0.053995129 -0.094340011 -0.91863441
0.05518245 -0.094465442 -0.91946357
0.056725729 -0.094569668 -0.92046165
0.057931744 -0.094684489 -0.9212532
0.059157465 -0.094789289 -0.92199773
0.060746577 -0.094876863 -0.922885
0.062359896 -0.094956808 -0.9237082
0.06364949 -0.095033266 -0.92429638
0.065294892 -0.095102735 -0.92503744
0.066983864 -0.09515731 -0.92563993
0.068698131 -0.095204048 -0.92613775
0.070089966 -0.095241539 -0.92644763
0.071860604 -0.095266759 -0.92671269
0.073971376 -0.095291302 -0.92690825
0.075431339 -0.095312312 -0.92697674
0.07689438 -0.095330603 -0.9270485
0.078367472 -0.095349953 -0.9271096
0.080182083 -0.095381826 -0.92710865
0.082007848 -0.095415652 -0.92707497
0.083165824 -0.09541665 -0.92713577
0.084652334 -0.095430762 -0.92716831
0.08616785 -0.0954464 -0.92714101
0.08766254 -0.095456481 -0.92717165
0.088797882 -0.095435917 -0.92727578
0.090300523 -0.09544868 -0.92729181
0.091794431 -0.095462807 -0.92733109
0.093649894 -0.095538475 -0.92738754
0.095148005 -0.095559262 -0.92746276
0.09665072 -0.095580019 -0.92752498
0.098144725 -0.095601052 -0.92762393
0.099637017 -0.095621943 -0.92773736
0.10112324 -0.095643088 -0.92786455
0.10261408 -0.09565869 -0.92797285
0.1045199 -0.095771663 -0.9280985
0.10514325 -0.095591754 -0.92822886
0.10661063 -0.095599182 -0.92835444
0.10852057 -0.095714621 -0.92848551
0.10954278 -0.095614955 -0.92860997
0.11144163 -0.095737338 -0.92880428
0.11289993 -0.095747888 -0.92896581
0.11435575 -0.09575519 -0.92913145
0.1157897 -0.095759153 -0.92934608
0.11767682 -0.09589953 -0.92966831
0.11909217 -0.095900036 -0.92993617
0.12094633 -0.096050531 -0.93042058
0.12231685 -0.096041813 -0.93081373
0.12366164 -0.096029297 -0.93126005
0.12543476 -0.09616407 -0.93198913
0.12763022 -0.096450202 -0.93308252
0.12934276 -0.096568771 -0.93402761
0.13055617 -0.096522242 -0.93475223
0.13266799 -0.096785091 -0.93616718
0.13428271 -0.096881039 -0.93735385
0.13587357 -0.09696877 -0.93858463
0.13742189 -0.097050272 -0.93989533
0.13845269 -0.096962839 -0.94084096
0.1404108 -0.097190104 -0.94268286
0.14190608 -0.097259238 -0.94401556
0.14338465 -0.09732601 -0.94535375
0.14434312 -0.09723597 -0.94619894
0.14582561 -0.097311571 -0.9474647
0.14733851 -0.097393863 -0.94867676
0.14945741 -0.097639114 -0.95028996
0.15103067 -0.09772902 -0.95142978
0.1526138 -0.097820327 -0.95255244
0.15420513 -0.097913049 -0.95366269
0.15517287 -0.097852521 -0.95431662
0.15614982 -0.097797528 -0.95493245
0.15842097 -0.098058961 -0.95640612
-0.044270314 -0.095797569 -0.90077037
-0.043063834 -0.09574873 -0.90138257
-0.041757654 -0.095933765 -0.90193874
-0.040602949 -0.095896177 -0.90263623
-0.039392252 -0.096067116 -0.90337193
-0.038102578 -0.095750324 -0.90401113
-0.036710322 -0.09541861 -0.90452737
-0.03536943 -0.095371582 -0.90507382
-0.033931725 -0.095133319 -0.90553886
-0.032435969 -0.094913989 -0.90587276
-0.030861156 -0.09459947 -0.90615398
-0.029305864 -0.094367452 -0.90648532
-0.02777561 -0.094268858 -0.9063096
-0.026234785 -0.094098419 -0.90601057
-0.02468295 -0.09394449 -0.90579683
-0.023196764 -0.093919963 -0.90557516
-0.021693481 -0.093872115 -0.90539962
-0.02020297 -0.093805782 -0.90521592
-0.018744171 -0.093823425 -0.90503603
-0.017257344 -0.09378764 -0.90483361
-0.015827429 -0.093861982 -0.90464997
-0.014474835 -0.094012856 -0.90436459
-0.013062612 -0.094039969 -0.90406412
-0.011671138 -0.094102927 -0.90375197
-0.010278886 -0.094149992 -0.90341359
-0.0088831708 -0.09419889 -0.90306008
-0.0074736923 -0.094228499 -0.90270412
-0.0060508382 -0.094243266 -0.90231168
-0.0045937481 -0.094219349 -0.90201992
-0.0031410283 -0.094214134 -0.90167105
-0.0016664284 -0.094176792 -0.90140569
-0.00019438661 -0.094150364 -0.90121371
0.0012883828 -0.094112687 -0.90100014
0.0027752693 -0.094076939 -0.90081733
0.0042564031 -0.094057031 -0.90069765
0.0056929751 -0.094049536 -0.90066904
0.0071691764 -0.094029441 -0.90058261
0.0086495355 -0.094016261 -0.9005155
0.010043635 -0.09401986 -0.90053248
0.011322332 -0.094044432 -0.90058833
0.012764581 -0.094047137 -0.90059292
0.013971505 -0.094083928 -0.90068525
0.015252555 -0.094107822 -0.90074265
0.016486712 -0.094139822 -0.9008677
0.017689021 -0.094184011 -0.90099609
0.01901057 -0.094216064 -0.90115684
0.020331306 -0.094248287 -0.90136707
0.021605562 -0.094294108 -0.90162587
0.022906594 -0.094335534 -0.90189135
0.024179436 -0.094370253 -0.90220779
0.025657326 -0.094405949 -0.90261835
0.027424542 -0.094429411 -0.90315676
0.02869028 -0.094484985 -0.90359634
0.0304894 -0.094528854 -0.90424955
0.032601442 -0.094578348 -0.9051348
0.034460835 -0.09463156 -0.90595549
0.036337163 -0.094684973 -0.90683818
0.038524512 -0.094725542 -0.90797931
0.04074569 -0.09474992 -0.90916824
0.042976689 -0.094772942 -0.91044158
0.044534337 -0.094863184 -0.91143507
0.046078648 -0.094961405 -0.91245019
0.047599144 -0.095070131 -0.91352338
0.048768427 -0.095218442 -0.91440147
0.049938284 -0.095364079 -0.9152633
0.051109571 -0.095501609 -0.91611588
0.05228138 -0.095642813 -0.91697669
0.053457834 -0.095778175 -0.91782695
0.054640215 -0.095910579 -0.91867077
0.055838145 -0.096033141 -0.91947579
0.057390261 -0.096133016 -0.92045009
0.058958888 -0.096227042 -0.92138565
0.060549613 -0.096313037 -0.92226577
0.061797433 -0.096412674 -0.92296046
0.063439503 -0.096480086 -0.92370969
0.064735256 -0.096558549 -0.92429346
0.066774458 -0.096596785 -0.9250685
0.068483211 -0.096640632 -0.92560685
0.070234522 -0.096667536 -0.92597413
0.071990363 -0.096692555 -0.9262749
0.073761784 -0.096711278 -0.92646956
0.075546578 -0.096731573 -0.92658794
0.077002607 -0.096751884 -0.92666858
0.078477547 -0.096777521 -0.92672533
0.079950474 -0.096796185 -0.92678207
0.081766851 -0.096834406 -0.92679793
0.083246335 -0.096848011 -0.92685729
0.084406339 -0.096844167 -0.92688227
0.085886791 -0.096861288 -0.92695707
0.087385625 -0.096879967 -0.92697048
0.088876657 -0.096897356 -0.9270311
0.089998238 -0.096878417 -0.92714208
0.091491021 -0.096890725 -0.92718244
0.092973538 -0.096903227 -0.92725486
0.094455451 -0.096916795 -0.92733562
0.095934451 -0.096932933 -0.92742527
0.097410664 -0.096945867 -0.92753357
0.098881572 -0.096959114 -0.92765409
0.10076525 -0.097050391 -0.92774212
0.10223462 -0.097062327 -0.92788911
0.10370284 -0.097075783 -0.92803729
0.10516065 -0.097088285 -0.92819339
0.10661727 -0.097097494 -0.92836195
0.10807569 -0.097104348 -0.9285149
0.10952038 -0.097113959 -0.92870063
0.11097214 -0.09711878 -0.92885983
0.11241834 -0.097122386 -0.9290309
0.11385791 -0.09712518 -0.92921627
0.11574894 -0.097257093 -0.92948914
0.11716707 -0.097255968 -0.92973846
0.11902516 -0.09739738 -0.93016815
0.12042017 -0.097393334 -0.93047529
0.12221652 -0.097532474 -0.93111336
0.12354565 -0.097515605 -0.9315775
0.12530817 -0.097647987 -0.93231457
0.12704386 -0.097773246 -0.9331398
0.12874147 -0.097891562 -0.934075
0.13042565 -0.098006658 -0.93505079
0.13206974 -0.098112322 -0.93612367
0.13415329 -0.098375842 -0.93762046
0.13573188 -0.098465554 -0.93886131
0.1372792 -0.098550253 -0.94015872
0.13831179 -0.098458141 -0.94109535
0.13979235 -0.098527201 -0.94245005
0.14127299 -0.098596156 -0.94377649
0.14326422 -0.098831274 -0.94553137
0.14422801 -0.098740242 -0.94637084
0.14571857 -0.098818459 -0.94762319
0.14722686 -0.098901719 -0.94883591
0.14876781 -0.098989375 -0.95000285
0.15092574 -0.099244557 -0.95157182
0.15249789 -0.099336229 -0.9527086
0.15349786 -0.099272266 -0.95335263
0.15507437 -0.099369317 -0.95445031
0.15606196 -0.099312946 -0.95506388
0.15832748 -0.099576816 -0.95654047
-0.040966146 -0.097860351 -0.90285879
-0.039743964 -0.097808696 -0.90350813
-0.03849848 -0.097715527 -0.90425676
-0.037054826 -0.09734381 -0.90471727
-0.035722531 -0.097255208 -0.90537333
-0.034209207 -0.096946679 -0.90579098
-0.032642253 -0.096661046 -0.90604836
-0.030954311 -0.096232869 -0.90604198
-0.029307621 -0.095900327 -0.90615875
-0.027697228 -0.095647372 -0.90619272
-0.026125129 -0.095454134 -0.90623587
-0.024595544 -0.095374756 -0.90599328
-0.023063976 -0.095238917 -0.90565568
-0.02158444 -0.095218278 -0.90539634
-0.020107541 -0.095167607 -0.90515369
-0.018651033 -0.095178358 -0.90493047
-0.017198879 -0.095201582 -0.904719
-0.015758073 -0.095231779 -0.90447217
-0.014386239 -0.09533672 -0.90419239
-0.012995247 -0.095419817 -0.90391672
-0.011589685 -0.095444627 -0.90358371
-0.010245098 -0.095567539 -0.90322226
-0.0088310074 -0.095571101 -0.90287501
-0.0074398746 -0.095614932 -0.90251064
-0.0060632271 -0.095690556 -0.90209609
-0.0046071964 -0.095663637 -0.90177304
