# .PCD v0.7 - Point Cloud Data file format
VERSION 0.7
FIELDS x y z
SIZE 4 4 4
TYPE F F F
COUNT 1 1 1
WIDTH 1352
HEIGHT 1
VIEWPOINT 0 0 0 1 0 0 0
POINTS 1352
DATA ascii
-0.036664717 -0.1585871 -0.90306658
-0.035259433 -0.15888926 -0.90602577
-0.033824477 -0.15884434 -0.90884382
-0.032425422 -0.15908031 -0.90984935
-0.031011263 -0.15922593 -0.91082984
-0.029594969 -0.15928006 -0.91176546
-0.02813725 -0.15960138 -0.9118908
-0.026802115 -0.15918744 -0.91349745
-0.025341908 -0.15935554 -0.91355699
-0.024001839 -0.15915488 -0.91431826
-0.022407757 -0.15969856 -0.91369104
-0.020950409 -0.15976299 -0.91370827
-0.019273954 -0.16021539 -0.91314006
-0.01784003 -0.16009969 -0.91305906
-0.016439525 -0.15994124 -0.91293049
-0.014797118 -0.16005616 -0.91219026
-0.013525496 -0.1597252 -0.91187757
-0.012019358 -0.15959837 -0.91091818
-0.01086292 -0.15923724 -0.91048336
-0.0093697226 -0.15910652 -0.90950274
-0.0079745967 -0.15888937 -0.90840095
-0.0069092996 -0.15851887 -0.90783769
-0.0059121922 -0.15815723 -0.90719295
-0.0049197474 -0.1577381 -0.90656179
-0.0039236271 -0.15737516 -0.90589303
-0.0025561121 -0.15711336 -0.90478015
-0.0011515148 -0.15687722 -0.9036386
0.00027842264 -0.15665619 -0.90244371
0.0017026262 -0.15640731 -0.901232
0.0035471255 -0.15635481 -0.89951569
0.0053336001 -0.15627614 -0.89790905
0.0071516293 -0.15620174 -0.89642841
0.0089435149 -0.15614088 -0.89501774
0.010720643 -0.15611404 -0.89367312
0.012225528 -0.15598577 -0.89279759
0.013958932 -0.15604141 -0.89153719
0.015249012 -0.1557492 -0.89111209
0.016763812 -0.15567887 -0.89028776
0.018276645 -0.1556544 -0.88952762
0.019770036 -0.15565054 -0.88878393
0.02116218 -0.15543203 -0.88852453
0.022574853 -0.15525724 -0.88832146
0.024016641 -0.15507492 -0.8881287
0.025474183 -0.15494943 -0.88800746
0.026981091 -0.15464275 -0.88832945
0.028551614 -0.15444098 -0.88863862
0.030219819 -0.15423687 -0.88903302
0.03170722 -0.1541844 -0.88922083
0.033654798 -0.15391323 -0.89024502
0.035277668 -0.15382271 -0.89102888
0.036963902 -0.15387848 -0.89192921
0.038830895 -0.15390423 -0.8932277
0.040418535 -0.15403932 -0.89414304
0.041720714 -0.15437643 -0.89479738
0.043253135 -0.15453379 -0.89582962
0.044520952 -0.15491891 -0.8965019
0.046010256 -0.15509988 -0.89750957
0.047502108 -0.15522018 -0.8985309
0.048746489 -0.15554339 -0.89901215
0.050207637 -0.15559703 -0.89991033
0.051451754 -0.15579191 -0.90022838
0.05291938 -0.15561606 -0.90083921
0.054186977 -0.15567537 -0.90095598
0.055494066 -0.15566792 -0.90093839
0.056844313 -0.15558001 -0.90085125
0.058234397 -0.15542513 -0.90068334
0.059547152 -0.15558115 -0.90007788
0.060973752 -0.15534236 -0.89984047
0.062296487 -0.15529153 -0.89930159
0.063736267 -0.15500151 -0.89902264
0.065160662 -0.15473561 -0.89879495
0.066595025 -0.15449674 -0.89857388
0.068048052 -0.15416755 -0.89839035
0.069603369 -0.15354009 -0.89861095
0.071078867 -0.153301 -0.89849389
0.072632909 -0.1530297 -0.89841855
0.074189991 -0.15287474 -0.89836991
0.075742871 -0.1527427 -0.89837313
0.077384725 -0.15259884 -0.89848059
0.078976646 -0.1525978 -0.89859754
0.08057896 -0.15268457 -0.8987779
0.082206234 -0.15281001 -0.89902836
0.083588153 -0.15345764 -0.89878583
0.08486139 -0.15412396 -0.8985123
0.086069956 -0.15488124 -0.89823186
0.087468348 -0.15532947 -0.8985374
0.08855629 -0.15609868 -0.89817774
0.090155937 -0.15628715 -0.89920324
0.091149762 -0.15710518 -0.89876413
0.092391282 -0.15765108 -0.89903998
0.093348853 -0.15844242 -0.89847547
0.095111743 -0.15846179 -0.90031832
0.096339747 -0.15896748 -0.90050721
0.097561002 -0.15946883 -0.90067607
0.099663369 -0.15922883 -0.90336841
0.10149015 -0.15925777 -0.90524143
0.10324728 -0.15945134 -0.90718055
0.104998 -0.15968271 -0.90913153
0.10690092 -0.1600145 -0.91206205
0.10880976 -0.16035916 -0.91499484
0.11055472 -0.16064459 -0.91697097
0.11235397 -0.16082577 -0.91890627
0.11393777 -0.16103984 -0.91991985
0.11553486 -0.16123331 -0.92092508
0.11715802 -0.16137579 -0.92190963
0.11849857 -0.1617047 -0.92204243
0.11985083 -0.16201687 -0.92216939
0.12178269 -0.16193609 -0.92399383
0.12343179 -0.16204479 -0.92496473
0.12507708 -0.16216969 -0.92594123
0.1264258 -0.1625126 -0.92609489
0.12839404 -0.1623802 -0.92787462
0.13036196 -0.1622768 -0.92965406
0.13233884 -0.16219966 -0.93142998
0.13461433 -0.16201705 -0.93403387
0.13656232 -0.16211712 -0.93585962
0.13816062 -0.16250283 -0.93693751
0.1400633 -0.16277489 -0.93882954
0.14196999 -0.16311875 -0.940745
0.14388567 -0.16350973 -0.94267327
0.14580007 -0.16392043 -0.9445923
0.14733334 -0.16445579 -0.94579548
0.14881438 -0.16497765 -0.94699359
0.15073454 -0.16534626 -0.94893932
0.15212977 -0.16590223 -0.95022231
0.15351176 -0.1664172 -0.95153368
0.15580079 -0.16668232 -0.95418268
0.15725513 -0.16709755 -0.95544308
0.15874094 -0.16748452 -0.95668983
0.16078316 -0.16766933 -0.95846188
0.16283785 -0.16784197 -0.96023041
0.16496749 -0.16793831 -0.96194893
0.1671491 -0.16793512 -0.96365148
0.16883676 -0.16809124 -0.96470839
0.17055802 -0.1682049 -0.96572399
0.17180078 -0.16848509 -0.96611822
0.17351893 -0.16852552 -0.9671793
0.17486744 -0.16876179 -0.96741062
0.1758768 -0.1692034 -0.96681774
0.1769357 -0.16960323 -0.96618086
0.17847762 -0.16965099 -0.9661994
0.18008356 -0.16959025 -0.96614414
0.18091738 -0.17008759 -0.96459627
0.18183474 -0.17051737 -0.96302176
0.18320809 -0.17053032 -0.96209252
0.18502714 -0.17005783 -0.96177161
0.18679617 -0.16943 -0.96144748
0.18794388 -0.16946909 -0.9596085
0.18965741 -0.16854675 -0.95918638
0.21352932 -0.1782802 -1.0257907
0.21611656 -0.18057932 -1.0328948
0.21900287 -0.18056332 -1.037678
0.222514 -0.17895271 -1.0436177
0.22486557 -0.17838396 -1.046187
0.2264574 -0.17866164 -1.0462909
0.22804533 -0.17886436 -1.0464879
0.22960275 -0.17913398 -1.046555
0.23092091 -0.17970203 -1.0458995
0.23248816 -0.17990184 -1.0459725
0.2341208 -0.1798211 -1.0460128
0.23574321 -0.17984 -1.0460386
0.23692651 -0.18044424 -1.0443453
0.23794088 -0.18123114 -1.0416887
0.2391759 -0.18147151 -1.0398293
0.24080263 -0.1810829 -1.0397481
0.24201967 -0.18106401 -1.0378259
0.24305098 -0.18125322 -1.0349699
0.24405642 -0.18106791 -1.0320323
0.24524772 -0.18071836 -1.0300283
0.24603248 -0.18036981 -1.0260509
0.24716412 -0.17981952 -1.024019
0.24869257 -0.1793139 -1.0239916
0.2500411 -0.17889453 -1.022989
0.25179169 -0.17841721 -1.0239611
0.25298029 -0.17819037 -1.0219809
0.25453579 -0.17773505 -1.0219743
0.25527766 -0.17752336 -1.0180056
0.25599718 -0.17721634 -1.0140133
0.2566902 -0.17688876 -1.0100058
0.25732276 -0.17634587 -1.0059986
0.2581791 -0.17587626 -1.0029943
0.25879344 -0.17546347 -0.99896932
0.25935614 -0.17486492 -0.9949615
0.26066211 -0.1743338 -0.99399072
0.26147139 -0.17382793 -0.99098957
0.262014 -0.17332324 -0.98697782
0.26306096 -0.17291936 -0.98498231
0.26410601 -0.17256209 -0.98298126
0.26541367 -0.17228031 -0.98198807
0.26644903 -0.17198993 -0.97998309
0.26802543 -0.17186247 -0.97999305
0.26904812 -0.17162982 -0.97798616
0.27118567 -0.17171974 -0.98000294
0.27247912 -0.17167082 -0.97899503
0.27547893 -0.17220476 -0.9840138
0.27762812 -0.17256436 -0.98601145
0.27947882 -0.17298137 -0.98700058
0.28249958 -0.17376272 -0.99200225
0.28527015 -0.17420672 -0.99599981
0.28805092 -0.17469624 -0.99998504
0.29051486 -0.17521453 -1.0029643
0.29271066 -0.17552052 -1.0049638
0.29431468 -0.1757203 -1.0049732
0.29592088 -0.1758675 -1.0049773
0.29689693 -0.17625073 -1.0030336
0.2985118 -0.17640126 -1.0030549
0.29980707 -0.17671688 -1.0020965
0.30110848 -0.17694709 -1.0011263
0.30242586 -0.17720047 -1.0001571
0.30374482 -0.17743701 -0.99918085
0.30508092 -0.17768271 -0.99819571
0.3064222 -0.17784902 -0.99719638
0.30809036 -0.1778419 -0.99718302
0.30944291 -0.17790602 -0.99618995
0.31108391 -0.17778479 -0.99617773
0.31272092 -0.17763746 -0.99615854
0.31404981 -0.17769408 -0.9951272
0.31567541 -0.1774579 -0.99512851
0.31723017 -0.17729011 -0.99508196
0.31910309 -0.17695971 -0.99607402
0.3209767 -0.17647178 -0.99707717
0.32285687 -0.17613761 -0.99805951
0.32601851 -0.17558721 -0.99803334
0.32760417 -0.17523527 -0.99801707
0.32887796 -0.17508206 -0.99701834
0.33014494 -0.17474625 -0.9960103
0.33141503 -0.17468627 -0.99501252
0.33301446 -0.17442828 -0.99500173
0.33394206 -0.1743535 -0.99301195
0.33554107 -0.17428321 -0.99300957
0.33678907 -0.17447089 -0.99201995
0.3380287 -0.17467296 -0.99103439
0.33960098 -0.17490727 -0.99105889
0.34187481 -0.17500803 -0.9930672
0.34378475 -0.17527723 -0.99408096
0.34570473 -0.17559417 -0.99509078
0.34765148 -0.17579833 -0.99609482
0.34999514 -0.17596881 -0.9980793
0.3523404 -0.17601913 -1.0000563
0.35468125 -0.17613944 -1.002037
0.35701913 -0.1763297 -1.0040219
0.35936341 -0.17651831 -1.0060099
0.36097196 -0.17679749 -1.0060235
0.36332801 -0.17701814 -1.0080143
0.36568174 -0.17723356 -1.010006
0.36803749 -0.17742294 -1.0120012
0.37003511 -0.17767811 -1.0130026
0.37203315 -0.17781422 -1.0140013
0.37403074 -0.17789204 -1.0150001
0.37638494 -0.17782758 -1.0170026
0.37838167 -0.17779934 -1.0180045
0.38001022 -0.17773116 -1.0180056
0.38236457 -0.17758426 -1.0200146
0.38361788 -0.17739844 -1.0190188
0.38485906 -0.17717978 -1.01802
0.38646251 -0.17686328 -1.0180292
0.3869437 -0.17631252 -1.0150272
0.38744798 -0.175897 -1.0120035
0.38830858 -0.17555267 -1.0099934
0.38844186 -0.17519498 -1.0059789
0.39004332 -0.17485227 -1.0059706
0.39053008 -0.17464839 -1.0029658
0.39100501 -0.17454021 -0.99997276
0.39184996 -0.17446035 -0.99798054
0.39268467 -0.1744277 -0.99599266
0.39351401 -0.17449097 -0.9940154
0.39510787 -0.17433344 -0.99400651
0.39631352 -0.17433043 -0.9930197
0.39751637 -0.17440458 -0.99203885
0.39911017 -0.17436649 -0.99203765
0.40030062 -0.17457986 -0.99108112
0.40188763 -0.17464606 -0.99109131
0.40388304 -0.17456247 -0.99206924
0.40630645 -0.17428513 -0.99400687
0.40832278 -0.17427352 -0.99498689
0.41034451 -0.17431748 -0.99596977
0.41236976 -0.17441714 -0.9969576
0.41484168 -0.17429839 -0.99889016
0.41641816 -0.17483802 -0.9989568
0.41796988 -0.17540467 -0.99905801
0.41998553 -0.17562938 -1.0000802
-0.28222093 -0.13815269 -0.7847997
-0.28058788 -0.13804732 -0.7838273
-0.27899069 -0.13778497 -0.78281343
-0.27694193 -0.13782308 -0.7809177
-0.27494189 -0.13764803 -0.77896458
-0.2725313 -0.13752961 -0.77606761
-0.27060938 -0.13705553 -0.77403736
-0.26871985 -0.13652113 -0.77199215
-0.26640284 -0.13608453 -0.76901639
-0.26413086 -0.13554323 -0.76601481
-0.26186523 -0.1350956 -0.76300746
-0.25999144 -0.13448896 -0.7610023
-0.25773442 -0.13406454 -0.75800061
-0.25584176 -0.1335541 -0.75600791
-0.25327328 -0.1334105 -0.75198394
-0.25107759 -0.13319923 -0.74897879
-0.2492186 -0.13297547 -0.74698108
-0.24738432 -0.13295397 -0.7449851
-0.24557671 -0.1330009 -0.74299181
-0.24410002 -0.13310447 -0.74200088
-0.24263825 -0.13327448 -0.74101651
-0.23277873 -0.134331 -0.75603414
-0.23212999 -0.13432483 -0.75801569
-0.23121148 -0.13446741 -0.75901532
-0.23001786 -0.13469522 -0.75903416
-0.22882153 -0.13490017 -0.7590524
-0.22788614 -0.13498244 -0.7600472
-0.22668433 -0.13515267 -0.7600646
-0.22548151 -0.13532005 -0.76008224
-0.22427633 -0.1355198 -0.76010185
-0.22332136 -0.13556731 -0.76109159
-0.22235416 -0.13561592 -0.76208293
-0.22139476 -0.13565007 -0.7630735
-0.22070335 -0.13546565 -0.76501656
-0.21974623 -0.13542998 -0.76599312
-0.21905947 -0.13524313 -0.76793051
-0.21809831 -0.13519619 -0.76890254
-0.21740441 -0.1350044 -0.77083635
-0.21643482 -0.13496892 -0.7718156
-0.21545909 -0.13493794 -0.7727977
-0.2142145 -0.13497087 -0.77280301
-0.21296625 -0.13499989 -0.77280384
-0.21171916 -0.13501462 -0.77281284
-0.21021099 -0.13509753 -0.7718423
-0.20896426 -0.13510735 -0.77184582
-0.20720902 -0.13529602 -0.76990205
-0.20571418 -0.13539213 -0.76893139
-0.20422517 -0.13550131 -0.7679615
-0.20249958 -0.13579647 -0.76603532
-0.20102544 -0.135947 -0.76507068
-0.19979426 -0.13594627 -0.76506889
-0.19856553 -0.13596599 -0.76506943
-0.1970997 -0.13612777 -0.76410371
-0.19587259 -0.13615271 -0.76410395
-0.19487964 -0.13605285 -0.76507312
-0.19365168 -0.13608938 -0.76507455
-0.19287787 -0.13584183 -0.76701552
-0.19164723 -0.1358947 -0.76701993
-0.19063969 -0.13581043 -0.76799709
-0.18963063 -0.13577271 -0.76898021
-0.18861911 -0.13576993 -0.76996785
-0.18781899 -0.13568242 -0.77194214
-0.1865892 -0.13585691 -0.77195483
-0.185573 -0.13597196 -0.77295429
-0.18455525 -0.1361067 -0.77395529
-0.18333618 -0.13636726 -0.77396989
-0.18232049 -0.13654163 -0.77497315
-0.18110926 -0.13681844 -0.77498722
-0.18009743 -0.13703728 -0.77599025
-0.17908338 -0.13725679 -0.77699333
-0.17806837 -0.13748345 -0.7779963
-0.17705111 -0.13771062 -0.77899832
-0.17603198 -0.13794057 -0.77999961
-0.17482612 -0.13819855 -0.78000313
-0.17379975 -0.13840847 -0.78100204
-0.17276879 -0.13861218 -0.7820009
-0.17173378 -0.13881277 -0.78299969
-0.17069681 -0.13902082 -0.78399873
-0.16965726 -0.13923246 -0.78499758
-0.16878922 -0.13942413 -0.7869972
-0.16774835 -0.13966952 -0.7879957
-0.16687314 -0.13988033 -0.7899971
-0.16600156 -0.14013982 -0.7919988
-0.16512617 -0.14041054 -0.79400098
-0.1640759 -0.14070225 -0.79499769
-0.16319185 -0.1409858 -0.79699969
-0.16230682 -0.141297 -0.79900092
-0.16141222 -0.14159049 -0.80100274
-0.16050731 -0.14186108 -0.8030057
-0.15959066 -0.14210448 -0.80500913
-0.15866512 -0.14233311 -0.80701184
-0.15772846 -0.14253712 -0.80901492
-0.15662387 -0.14274295 -0.81001395
-0.15566869 -0.14291072 -0.81201637
-0.15455224 -0.14309669 -0.81301481
-0.15327388 -0.14327069 -0.81301093
-0.15200198 -0.14347424 -0.81300658
-0.1507345 -0.14369413 -0.81300223
-0.14946505 -0.14389718 -0.81299818
-0.14834195 -0.14409229 -0.81399798
-0.14694357 -0.14437674 -0.812989
-0.14568187 -0.14460483 -0.81298512
-0.1445584 -0.14481252 -0.81398445
-0.14343493 -0.14503747 -0.81498468
-0.14230929 -0.14526574 -0.81598306
-0.14118354 -0.14551114 -0.81698185
-0.14005743 -0.14576283 -0.81798095
-0.13905711 -0.1459993 -0.81998134
-0.1381792 -0.14624326 -0.82298779
-0.13729699 -0.14651661 -0.82599133
-0.13641806 -0.1468564 -0.82899565
-0.13569713 -0.14739612 -0.83299971
-0.13484745 -0.14797281 -0.83600193
-0.13406952 -0.1483078 -0.83999282
-0.13325508 -0.1484822 -0.84398061
-0.13229758 -0.14859053 -0.84696573
-0.13142765 -0.14850618 -0.85093099
-0.1301755 -0.14848338 -0.85190231
-0.12893923 -0.14852002 -0.85287315
-0.12759449 -0.14864743 -0.85286653
-0.12627229 -0.14880361 -0.8528527
-0.12495227 -0.14899479 -0.85284537
-0.12340153 -0.14946085 -0.85090607
-0.12206293 -0.14967453 -0.85091609
-0.12072567 -0.14991695 -0.85092783
-0.11929446 -0.15036614 -0.85000211
-0.11787015 -0.15083243 -0.84909099
-0.11661611 -0.15087381 -0.85008436
-0.1152713 -0.15110408 -0.85013312
-0.11400273 -0.15100291 -0.85109764
-0.11265717 -0.1512589 -0.85116374
-0.11137906 -0.15111563 -0.85210347
-0.11010648 -0.15097073 -0.85302585
-0.10874859 -0.15115267 -0.85308152
-0.10755613 -0.1505608 -0.85477817
-0.10628555 -0.15037252 -0.85563838
-0.10482927 -0.15091565 -0.85488474
-0.10355426 -0.15064958 -0.8557139
-0.10209561 -0.15122911 -0.85499835
-0.10072275 -0.15133202 -0.85503793
-0.099349029 -0.15145427 -0.85508537
-0.09786927 -0.15197574 -0.85434884
-0.096381485 -0.15247975 -0.85359901
-0.094879106 -0.15292764 -0.85282844
-0.093375325 -0.15332456 -0.85203582
-0.091858171 -0.1536656 -0.8512271
-0.090327077 -0.15393074 -0.85039681
-0.088911884 -0.15369056 -0.85033894
-0.087658904 -0.1530533 -0.85104543
-0.08628118 -0.15277165 -0.8509354
-0.084914424 -0.15241279 -0.85079944
-0.083559237 -0.15210237 -0.85068053
-0.082363613 -0.15133931 -0.85131705
-0.081020966 -0.15100534 -0.85118312
-0.079678394 -0.15068558 -0.85105997
-0.07833416 -0.15039505 -0.85095108
-0.076985247 -0.15014045 -0.85085839
-0.075626254 -0.14995496 -0.85079962
-0.074260332 -0.14982402 -0.85076141
-0.072886847 -0.14971209 -0.85073751
-0.071404018 -0.14998288 -0.84988487
-0.069932826 -0.15023439 -0.84901911
-0.06846755 -0.15054394 -0.8481648
-0.067011781 -0.15089592 -0.84730726
-0.065667063 -0.15098883 -0.84732562
-0.064324908 -0.15110427 -0.84734386
-0.062989265 -0.15123928 -0.84736657
-0.061649323 -0.15137771 -0.84738684
-0.060310911 -0.15153341 -0.84740436
-0.059025779 -0.15143034 -0.84832937
-0.057742901 -0.15138955 -0.84925228
-0.056443512 -0.15133852 -0.85018963
-0.055145413 -0.151088 -0.8520664
-0.053820889 -0.15073065 -0.85492074
-0.052483663 -0.15074669 -0.85688829
-0.051142272 -0.15075478 -0.86083674
-0.049860962 -0.15123242 -0.86287862
-0.048583828 -0.15188409 -0.86790699
-0.047429033 -0.15285078 -0.87197644
-0.046251107 -0.15364693 -0.8749972
-0.04503921 -0.15432811 -0.87800074
-0.043841805 -0.15496708 -0.87999856
-0.042620387 -0.1556178 -0.88299602
-0.041360099 -0.15627289 -0.8869819
-0.040170502 -0.1569477 -0.88898712
-0.038966686 -0.15768822 -0.89199352
-0.037727062 -0.1584595 -0.89599675
-0.036450364 -0.15912637 -0.89901763
-0.035076335 -0.15953149 -0.90295666
-0.033704437 -0.15986791 -0.90494347
-0.032281488 -0.15978681 -0.90772796
-0.030897288 -0.16002199 -0.90871769
-0.029498242 -0.16012213 -0.90966004
-0.028137505 -0.15979788 -0.91134089
-0.026700681 -0.16006945 -0.91142386
-0.025336934 -0.16000588 -0.91222757
-0.023909742 -0.16021422 -0.91229659
-0.022468051 -0.16040869 -0.91236097
-0.020870414 -0.16094764 -0.9117732
-0.019401899 -0.16102685 -0.91180569
-0.017955272 -0.16101517 -0.91178411
-0.016537093 -0.16094403 -0.91171139
-0.015185569 -0.16076316 -0.91153419
-0.013587205 -0.16086134 -0.91074806
-0.012038209 -0.16082963 -0.90986812
-0.010546739 -0.16068821 -0.90889424
-0.0093922969 -0.16031393 -0.90845507
-0.0083347252 -0.15991807 -0.90789628
-0.0069228639 -0.15971778 -0.90683401
-0.0059039993 -0.15933235 -0.90624571
-0.0048766597 -0.15892385 -0.90566361
-0.003520695 -0.15869622 -0.9044804
-0.0025253121 -0.15827243 -0.90384173
-0.0011276749 -0.15804756 -0.90266848
-0.0001022421 -0.15761313 -0.90199172
0.0016626262 -0.15753035 -0.90021735
0.0034649398 -0.15741985 -0.89844716
0.0052605541 -0.15727034 -0.89681751
0.0067302808 -0.15706766 -0.89570725
0.0082304571 -0.15685186 -0.89459932
0.010305459 -0.1569432 -0.89281809
0.011821737 -0.15674867 -0.89191633
0.013566948 -0.15674552 -0.89062893
0.014897974 -0.15642509 -0.89020544
0.016439807 -0.1563279 -0.889368
0.017848961 -0.15602836 -0.8890081
0.019404331 -0.15598962 -0.88827562
0.020958768 -0.15600693 -0.88762146
0.022411352 -0.15578136 -0.88744414
0.023897467 -0.15558286 -0.88727331
0.025383214 -0.15546729 -0.88718873
0.026862446 -0.15534553 -0.88717657
0.028397638 -0.1552432 -0.88718283
0.029953657 -0.15496494 -0.88770843
0.031641293 -0.15493719 -0.88811129
0.033350773 -0.15483633 -0.88874829
0.035261299 -0.15466076 -0.88996559
0.036927454 -0.15475772 -0.89083594
0.03856856 -0.15495135 -0.89179564
0.040160123 -0.15511797 -0.89281541
0.041691985 -0.15533704 -0.89380068
0.042963233 -0.1557409 -0.89440405
0.044218805 -0.15615687 -0.89503902
0.045718513 -0.15631555 -0.89610857
0.046962049 -0.15671203 -0.89663553
0.048219193 -0.15705423 -0.89709467
0.049491081 -0.15738757 -0.89751101
0.050800186 -0.15764171 -0.89780676
0.051987875 -0.15813658 -0.89741701
0.053389404 -0.15823363 -0.89751297
0.05481334 -0.15824926 -0.89753824
0.056127459 -0.15850292 -0.89688081
0.057696305 -0.15796347 -0.89732116
0.059138831 -0.15773866 -0.89714342
0.060580753 -0.15745555 -0.89690739
0.062007248 -0.15718929 -0.89667803
0.063444413 -0.15691186 -0.89644843
0.064867496 -0.15664233 -0.89622813
0.066373236 -0.15598032 -0.89652401
0.067802303 -0.15570171 -0.89630187
0.06930168 -0.15512285 -0.89662373
0.070810698 -0.15484299 -0.89647871
0.072302952 -0.15464325 -0.89636523
0.073806986 -0.15446469 -0.89629006
0.07550963 -0.1539081 -0.8967737
0.077081867 -0.15378942 -0.89684749
0.078680962 -0.15380847 -0.89694566
0.080362223 -0.15382561 -0.89716369
0.081979707 -0.15397754 -0.89735246
0.083320357 -0.15456891 -0.89706784
0.084859893 -0.15487966 -0.89736533
0.086087652 -0.15561669 -0.89706397
0.087248236 -0.15636329 -0.89666665
0.088614427 -0.15681288 -0.89695275
0.089684352 -0.15757772 -0.89648068
0.090971887 -0.15810032 -0.89674097
0.092250943 -0.15857384 -0.89696068
0.092983797 -0.15962715 -0.89550191
0.094476707 -0.15985133 -0.89651567
0.095975727 -0.16008797 -0.89752632
0.09749686 -0.16030185 -0.89852726
0.098735072 -0.1607707 -0.89866567
0.10057151 -0.16071279 -0.90051544
0.10240425 -0.1607026 -0.90238589
0.10420212 -0.16078776 -0.90429509
0.10596763 -0.1609651 -0.90623951
0.10792652 -0.16116157 -0.90912807
0.10986806 -0.16142252 -0.9120366
0.11136796 -0.16180791 -0.91310734
0.11340659 -0.16189036 -0.91595405
0.11496041 -0.1621713 -0.91698986
0.11654861 -0.16238286 -0.91800207
0.11815338 -0.16256449 -0.9190039
0.11946764 -0.16294721 -0.91914827
0.12138181 -0.16290641 -0.92099953
0.12300051 -0.16307798 -0.92199731
0.12432365 -0.16346337 -0.92215627
0.1259613 -0.16360322 -0.9231441
0.1275872 -0.16377923 -0.92414641
0.12954719 -0.1636696 -0.92594534
0.13118623 -0.16383384 -0.92693883
0.13344879 -0.16359888 -0.92957479
0.13536853 -0.16369794 -0.93143225
0.13693543 -0.16408902 -0.93252337
0.13949746 -0.16395678 -0.93602753
0.14139004 -0.16427469 -0.9379558
0.14327364 -0.16466504 -0.93990755
0.1455435 -0.16495927 -0.94263536
0.14745139 -0.16541703 -0.94458407
0.14892381 -0.16598415 -0.94579524
0.15039048 -0.16651198 -0.94701612
0.15221152 -0.16699348 -0.94903415
0.15359285 -0.16752572 -0.9503209
0.15542264 -0.1679104 -0.95230162
0.15685894 -0.16833417 -0.95355141
0.15878321 -0.16863145 -0.95545828
0.16074313 -0.16889612 -0.95729953
0.16336618 -0.16880773 -0.95957446
0.16455705 -0.16917479 -0.9600414
0.16719875 -0.16898809 -0.96237355
0.16888145 -0.16910186 -0.96345842
0.17062119 -0.16911353 -0.96443266
0.17235395 -0.1691138 -0.96546674
0.17405941 -0.16902332 -0.96656102
0.17580086 -0.16892198 -0.96753961
0.17686218 -0.16931558 -0.96689212
0.17793417 -0.16966376 -0.96619856
0.17904319 -0.16993669 -0.96549475
0.18063003 -0.16981804 -0.96544445
0.18183443 -0.1699273 -0.96463239
0.18311401 -0.16994095 -0.96374428
0.18372115 -0.17061859 -0.96131539
0.18542752 -0.17010702 -0.96105587
0.1870968 -0.16948119 -0.96078843
0.18844435 -0.16911715 -0.95971185
0.18979116 -0.16857833 -0.95859891
0.19066525 -0.16855012 -0.95576102
0.22636607 -0.17700374 -1.0492334
0.22756892 -0.17761053 -1.0486456
0.2286725 -0.17858911 -1.0473495
0.22993387 -0.17917097 -1.046759
0.23096131 -0.17996486 -1.045454
0.2322882 -0.18053047 -1.0447633
0.23413229 -0.18020068 -1.0456275
0.23547877 -0.18052337 -1.0448233
0.23666866 -0.1810168 -1.0431416
0.23786427 -0.18142553 -1.0413462
0.23905088 -0.18158574 -1.0394884
0.2404698 -0.18143609 -1.0385123
0.24165188 -0.18148464 -1.0365911
0.24304253 -0.18115799 -1.035589
0.24439919 -0.18077235 -1.0345638
0.24496976 -0.18085483 -1.0297949
0.25526506 -0.17684282 -1.0050579
0.25566813 -0.17623204 -1.0000521
0.25611094 -0.17601815 -0.99499822
0.25645658 -0.17545378 -0.98997396
0.25725052 -0.17479548 -0.98698419
0.25804037 -0.17416699 -0.98399162
0.25832865 -0.17355025 -0.9789688
0.2593568 -0.17304613 -0.97698289
0.2601271 -0.17252938 -0.97398162
0.26115143 -0.1721445 -0.97198594
0.26190478 -0.17172305 -0.9689815
0.2634584 -0.17147309 -0.96899569
0.264469 -0.17119944 -0.96699172
0.26602912 -0.1710377 -0.96700042
0.26730824 -0.17090042 -0.96599829
0.26886535 -0.17085853 -0.9660005
0.27070829 -0.17090666 -0.96700728
0.27312627 -0.1712282 -0.97001857
0.27438927 -0.1712787 -0.96900648
0.27681771 -0.17168021 -0.97201353
0.27894902 -0.17213452 -0.9740082
0.28167474 -0.17281362 -0.97800839
0.28406087 -0.1737981 -0.98099619
0.28674248 -0.17493194 -0.98500782
0.28856218 -0.17549597 -0.98600644
0.29040074 -0.1760665 -0.9870218
0.29288766 -0.17671162 -0.99003124
0.2950927 -0.17714663 -0.9920488
0.29733649 -0.17748576 -0.99409539
0.29926372 -0.17762405 -0.99510252
0.30088142 -0.17784911 -0.99511576
0.30250612 -0.17801371 -0.99511808
0.30415192 -0.17812257 -0.99511045
0.30577913 -0.17811763 -0.99510676
0.3077226 -0.17798209 -0.99610424
0.30906364 -0.17804092 -0.99511027
0.31070077 -0.17793001 -0.99509388
0.31231391 -0.17779824 -0.99507749
0.31392375 -0.17771021 -0.99506611
0.31494927 -0.1777842 -0.99306536
0.31595528 -0.17779465 -0.99105132
0.31722334 -0.17761298 -0.99004775
0.31877625 -0.17733265 -0.99004769
0.31937426 -0.17723158 -0.98701364
0.32091326 -0.17688949 -0.98701149
0.32147703 -0.17657967 -0.98398226
0.32236704 -0.1761065 -0.98196739
0.32292488 -0.17557883 -0.97896451
0.32415855 -0.17514771 -0.97794759
0.32537237 -0.17483026 -0.97695869
0.32660651 -0.17452587 -0.97595447
0.32814658 -0.17451757 -0.97596365
0.32933369 -0.17447947 -0.97498757
0.33122939 -0.17478389 -0.97600359
0.33275828 -0.17506817 -0.97603267
0.33502781 -0.17534555 -0.97807199
0.33729163 -0.17573327 -0.98009324
0.33955637 -0.17599159 -0.98214805
0.34216949 -0.17619242 -0.98515463
0.34443405 -0.17637023 -0.98716903
0.34712425 -0.17652804 -0.99012262
0.34984142 -0.17655683 -0.9930774
0.35218871 -0.17668948 -0.99505883
0.35452566 -0.176745 -0.99703074
0.35649216 -0.17692009 -0.99803001
0.35883585 -0.1769916 -1.0000077
0.36081019 -0.17711391 -1.0010036
0.36315176 -0.17728728 -1.002993
0.36512783 -0.17749016 -1.0039955
0.36710802 -0.17769215 -1.0049971
0.36909026 -0.17780903 -1.0059955
0.37071323 -0.17791091 -1.0059991
0.37269643 -0.1779605 -1.0069971
0.37503669 -0.17796144 -1.0089945
0.37665355 -0.17789476 -1.0089941
0.37862384 -0.1777508 -1.009994
0.38022935 -0.17757101 -1.0099943
0.381457 -0.17727268 -1.0089924
0.38231891 -0.1768776 -1.0069871
0.38353497 -0.17646487 -1.0059803
0.38403648 -0.17617135 -1.0029745
0.3848927 -0.17587566 -1.0009624
0.38574758 -0.17561741 -0.99895751
0.38696939 -0.17535236 -0.9979533
0.3878181 -0.17527913 -0.99596435
0.38903651 -0.17504567 -0.9949528
0.39063516 -0.17478287 -0.99493676
0.39109048 -0.1749637 -0.99197114
0.39268383 -0.17478865 -0.99195838
0.39389277 -0.17477053 -0.99096423
0.39471251 -0.17507014 -0.98901027
0.39630318 -0.17501205 -0.98900604
0.39749822 -0.17515332 -0.98803312
0.39868313 -0.17536366 -0.98707289
0.40026474 -0.17547363 -0.98708892
0.40225595 -0.17548308 -0.98807621
0.4046683 -0.17527393 -0.99001861
0.40710053 -0.17511266 -0.99195796
0.40911728 -0.17520526 -0.99294573
0.41157702 -0.17510481 -0.99487883
0.41360104 -0.17533617 -0.99587721
0.41562387 -0.17562035 -0.99687922
0.4167127 -0.17653413 -0.99606532
0.41823524 -0.17717722 -0.99619746
0.42020932 -0.17747094 -0.9972772
-0.27870649 -0.13854754 -0.78172708
-0.27670029 -0.13843708 -0.77980286
-0.272311 -0.13811114 -0.77494395
-0.27040488 -0.13763648 -0.77291274
-0.26809099 -0.13723253 -0.7699455
-0.26627052 -0.13663603 -0.7678774
-0.26402286 -0.13608894 -0.76486933
-0.26205578 -0.13533923 -0.76295274
-0.26010802 -0.13458075 -0.76102442
-0.25779772 -0.13408631 -0.75806433
-0.25551897 -0.13369215 -0.75505847
-0.25292715 -0.13351589 -0.75102395
-0.25070867 -0.13322353 -0.74800742
-0.24852151 -0.13309762 -0.7449978
-0.24668418 -0.13306266 -0.74299634
-0.24487856 -0.13315615 -0.74099541
-0.24339522 -0.13323112 -0.73999882
-0.24193901 -0.13345657 -0.73900437
-0.24052393 -0.13369273 -0.73802418
-0.23936425 -0.13389564 -0.73803449
-0.23820527 -0.13412541 -0.73804289
-0.23708177 -0.13440858 -0.73807037
-0.2359602 -0.1346802 -0.73809302
-0.23508559 -0.13486198 -0.73911422
-0.23445359 -0.13493651 -0.74111545
-0.23358151 -0.13509539 -0.74212039
-0.23295194 -0.13512994 -0.7441119
-0.23206867 -0.13528861 -0.74511933
-0.23168467 -0.135166 -0.74808919
-0.23104258 -0.13516372 -0.75007451
-0.23065072 -0.13498206 -0.75303704
-0.22973385 -0.13510463 -0.75403613
-0.22881369 -0.13522883 -0.75503576
-0.22788651 -0.13533144 -0.75603151
-0.22695573 -0.13540532 -0.75702399
-0.22576335 -0.13561489 -0.7570436
-0.22482367 -0.13567446 -0.75803405
-0.22362761 -0.13588378 -0.75805366
-0.22268067 -0.13593327 -0.75904167
-0.22147936 -0.1361807 -0.75906628
-0.22052509 -0.13622679 -0.76005548
-0.21956784 -0.1362195 -0.76104128
-0.21861243 -0.13617729 -0.76201838
-0.21765456 -0.13609229 -0.76298875
-0.21696018 -0.13578871 -0.76491141
-0.21599944 -0.13568515 -0.7658779
-0.21530285 -0.13546112 -0.76780641
-0.21406899 -0.13549644 -0.76780826
-0.21309794 -0.13538679 -0.76877266
-0.21185629 -0.13540329 -0.76877904
-0.21061487 -0.13541649 -0.76878184
-0.20911397 -0.13551252 -0.76781106
-0.20787373 -0.13551606 -0.76781362
-0.20637967 -0.13564001 -0.76684654
-0.20489502 -0.13580702 -0.76589233
-0.20341355 -0.13596094 -0.76493156
-0.2019348 -0.13608764 -0.76396739
-0.20046128 -0.13622361 -0.763004
-0.19923343 -0.13623413 -0.76300502
-0.1977672 -0.13639316 -0.76204199
-0.1965442 -0.13643861 -0.7620461
-0.19532062 -0.13647664 -0.76204896
-0.19409758 -0.13651979 -0.7620517
-0.19287372 -0.13656098 -0.76205462
-0.19165102 -0.13659921 -0.76205724
-0.19065523 -0.1365118 -0.76303071
-0.18965501 -0.13643289 -0.76400614
-0.18865174 -0.13638538 -0.7649858
-0.18764509 -0.13636667 -0.76596951
-0.186635 -0.13636173 -0.76695532
-0.18541601 -0.13654794 -0.76697153
-0.18440352 -0.13659717 -0.76796317
-0.18339106 -0.13668142 -0.76895869
-0.18237653 -0.13679981 -0.76995599
-0.18116732 -0.13705528 -0.76997441
-0.18015601 -0.13722423 -0.77097577
-0.17914213 -0.13739175 -0.77197659
-0.17812811 -0.13758434 -0.7729795
-0.17692962 -0.13787168 -0.77299511
-0.17591678 -0.13808079 -0.77399701
-0.17490155 -0.13829212 -0.77499866
-0.17388013 -0.13848494 -0.77599931
-0.17268065 -0.1387476 -0.77600622
-0.17165627 -0.13894327 -0.77700531
-0.17079724 -0.1390624 -0.77900028
-0.1695918 -0.13930956 -0.77900296
-0.16855974 -0.13951921 -0.78000212
-0.16752411 -0.13972868 -0.78100091
-0.16665515 -0.13989876 -0.78299981
-0.16561483 -0.14012572 -0.7839992
-0.16457333 -0.14036171 -0.78499794
-0.16369785 -0.14057995 -0.78699881
-0.16265331 -0.14084224 -0.78799731
-0.16177139 -0.14108454 -0.78999877
-0.16071942 -0.14135017 -0.79099697
-0.15982971 -0.14160962 -0.79299873
-0.15893306 -0.14186712 -0.79500073
-0.15786858 -0.14213398 -0.79599893
-0.15712123 -0.14238408 -0.79900515
-0.15604387 -0.14263529 -0.80000353
-0.1551117 -0.14283636 -0.80200708
-0.15401816 -0.14304718 -0.80300647
-0.15292047 -0.14325212 -0.80400568
-0.15197292 -0.14345829 -0.80600888
-0.1507173 -0.14367133 -0.80600411
-0.14961079 -0.14387998 -0.80700338
-0.14835705 -0.1441084 -0.80699867
-0.1471054 -0.14434612 -0.80699372
-0.14599489 -0.14456554 -0.80799282
-0.14488053 -0.14477907 -0.80899209
-0.14362884 -0.14502893 -0.80898672
-0.14251275 -0.14525293 -0.80998576
-0.14152619 -0.14545493 -0.81198859
-0.14040582 -0.14569704 -0.81298834
-0.13928807 -0.14596398 -0.81398696
-0.13816662 -0.14622535 -0.81498629
-0.13728814 -0.14643349 -0.81799185
-0.13628337 -0.14669825 -0.81999367
-0.13539501 -0.14695682 -0.82299888
-0.13450542 -0.14725982 -0.82600349
-0.13362582 -0.14764589 -0.82900494
-0.13277689 -0.14819409 -0.83199757
-0.13202055 -0.14864393 -0.83598429
-0.13109824 -0.14893129 -0.83897132
-0.13011895 -0.14896508 -0.84195489
-0.12897611 -0.14883658 -0.8439362
-0.12775789 -0.14896046 -0.84491974
-0.12644494 -0.14916882 -0.84491855
-0.12516123 -0.14952269 -0.84492719
-0.12387843 -0.14991932 -0.84493905
-0.12258279 -0.15027554 -0.84495831
-0.12127511 -0.15059955 -0.84498113
-0.11997805 -0.15099223 -0.84501529
-0.11867179 -0.15134421 -0.84505302
-0.11737135 -0.1517233 -0.84510761
-0.11613715 -0.15190417 -0.84612256
-0.11483834 -0.15230928 -0.84620374
-0.11357736 -0.15237616 -0.8472172
-0.11231555 -0.15236691 -0.84821028
-0.1110444 -0.15230362 -0.84917545
-0.10983456 -0.15184298 -0.85098547
-0.10856358 -0.15171839 -0.85189253
-0.10729344 -0.1515301 -0.85276681
-0.10602337 -0.15135877 -0.85363483
-0.10475385 -0.1511002 -0.85445243
-0.10340194 -0.15131535 -0.85453391
-0.1019486 -0.1518908 -0.85380507
-0.100585 -0.1520329 -0.85385394
-0.099120021 -0.15257737 -0.85311812
-0.097746275 -0.15267296 -0.85315347
-0.096265815 -0.15314209 -0.85238969
-0.094776005 -0.15360422 -0.85161996
-0.093155444 -0.15439144 -0.85004413
-0.091757625 -0.15427095 -0.8500002
-0.090231515 -0.15456536 -0.84920645
-0.08883258 -0.15435243 -0.84912735
-0.087447435 -0.15408857 -0.84905231
-0.085915677 -0.15420751 -0.84821045
-0.084558308 -0.15388799 -0.84806955
-0.083201878 -0.15349285 -0.84792906
-0.081862159 -0.153117 -0.84776723
-0.080682822 -0.15233436 -0.84838009
-0.079350896 -0.15196934 -0.84823436
-0.078161649 -0.15129639 -0.84890908
-0.076819681 -0.15102272 -0.8488102
-0.075474873 -0.15077482 -0.8487286
-0.074107386 -0.15060876 -0.84868455
-0.072734721 -0.15051086 -0.84866285
-0.071363933 -0.15041688 -0.84864193
-0.069886029 -0.15069674 -0.84779453
-0.068416856 -0.15097433 -0.84693754
-0.066949397 -0.15136708 -0.84610236
-0.065680481 -0.15109687 -0.8469764
-0.06423901 -0.15152209 -0.84613603
-0.062886462 -0.15163326 -0.84615916
-0.061537817 -0.15175694 -0.84618306
-0.060194276 -0.15186007 -0.84621018
-0.058897551 -0.15172781 -0.84713328
-0.057563391 -0.151829 -0.84716487
-0.056270987 -0.15158938 -0.84901088
-0.054956377 -0.15139303 -0.85090804
-0.0536112 -0.15120319 -0.85283774
-0.052264646 -0.15118091 -0.85480291
-0.050903443 -0.15125874 -0.8567884
-0.049561158 -0.15147519 -0.85979497
-0.048264198 -0.15195878 -0.86283785
-0.046991508 -0.15267043 -0.86589074
-0.045799237 -0.15361439 -0.86996394
-0.044634975 -0.15439333 -0.87199283
-0.043432746 -0.1551104 -0.87499946
-0.042256605 -0.15579271 -0.87700218
-0.041063748 -0.1564388 -0.87900203
-0.03985671 -0.15713856 -0.88199967
-0.038638651 -0.1578299 -0.8849979
-0.037410699 -0.15860398 -0.88899654
-0.036248077 -0.15951809 -0.89202422
-0.034992751 -0.16035764 -0.89605886
-0.033628676 -0.16091694 -0.90005583
-0.032209162 -0.16114593 -0.90299171
-0.030773656 -0.16099997 -0.90577626
-0.029387509 -0.16127023 -0.90677774
-0.027992239 -0.16104829 -0.90851676
-0.026610937 -0.16104947 -0.90938342
-0.025228553 -0.16094221 -0.91023368
-0.023828337 -0.16130653 -0.91032225
-0.022380838 -0.16147156 -0.91039401
-0.020805988 -0.16207601 -0.90980113
-0.019325698 -0.16222245 -0.90987337
-0.017853703 -0.16229078 -0.9099068
-0.01619024 -0.162623 -0.90927088
-0.01476551 -0.1624755 -0.9091782
-0.013408045 -0.16223495 -0.90898812
-0.011838583 -0.16221204 -0.90813291
-0.010299987 -0.16211469 -0.90721864
-0.0088041592 -0.16195905 -0.90624344
-0.0080361413 -0.16125752 -0.90630221
-0.0066197147 -0.16105492 -0.90524405
-0.0055655008 -0.16062917 -0.90469855
-0.0045682844 -0.16021466 -0.90407223
-0.0035624197 -0.15980506 -0.9034642
-0.002555317 -0.15941158 -0.90283144
-0.0011799063 -0.15913865 -0.90161383
0.00018688889 -0.15886118 -0.90036732
0.0015907763 -0.15857191 -0.89912921
0.0033642158 -0.15837961 -0.89736676
0.0048367279 -0.15807459 -0.89615935
0.0065959916 -0.15798624 -0.89453048
0.0083773257 -0.15788868 -0.89301521
0.0098882215 -0.15763365 -0.89201695
0.011653948 -0.15757985 -0.89064312
0.013165971 -0.15736219 -0.88979656
0.014714285 -0.15722117 -0.8888936
0.01611134 -0.15688497 -0.88852161
0.017683331 -0.15682667 -0.88775408
0.019271307 -0.15673105 -0.8870368
0.020744059 -0.15646738 -0.8868351
0.022311034 -0.1564678 -0.88621539
0.023822343 -0.15658645 -0.88562793
0.025294172 -0.15642726 -0.88554835
0.026795076 -0.15638755 -0.88551968
0.028290946 -0.15637001 -0.88550788
0.029802473 -0.15643582 -0.88555002
0.031350851 -0.15618017 -0.88617289
0.032994349 -0.15600359 -0.88686109
0.034644123 -0.15595768 -0.88757825
0.036329411 -0.15609054 -0.88842136
0.037926305 -0.15636389 -0.88933396
0.039519016 -0.15661617 -0.89026886
0.041008469 -0.15684669 -0.89141047
0.042291842 -0.15731157 -0.89192152
0.043558095 -0.15778942 -0.89242196
0.045023408 -0.15803286 -0.89345443
0.046282623 -0.15850085 -0.89393866
0.047573283 -0.15890294 -0.89433008
0.048900045 -0.15926993 -0.89463586
0.050093278 -0.15988585 -0.89421874
0.05150231 -0.160089 -0.89434403
0.052808713 -0.16045572 -0.8936637
0.054157436 -0.16067041 -0.89284682
0.055644218 -0.16054261 -0.892766
0.057122204 -0.1603487 -0.8926515
0.058601305 -0.16011406 -0.89251935
0.06007506 -0.15981089 -0.89234084
0.061529979 -0.15952331 -0.89217639
0.063055716 -0.15898126 -0.89274782
0.064568587 -0.15837404 -0.89322913
0.065999277 -0.15808517 -0.89304489
0.067499444 -0.15749153 -0.89349586
0.068942033 -0.15721785 -0.89333713
0.070389524 -0.15692925 -0.89320201
0.071852937 -0.15668851 -0.8930735
0.073339127 -0.15644541 -0.89296174
0.074921712 -0.15607394 -0.89351642
0.076518863 -0.15587682 -0.89351106
0.078049079 -0.15587206 -0.89354408
0.07977891 -0.15561993 -0.89426798
0.081367411 -0.15578119 -0.89445841
0.082683064 -0.1563465 -0.89400882
0.084161505 -0.15663819 -0.89422709
0.085625328 -0.15697129 -0.89447224
0.086799026 -0.15766619 -0.89399648
0.088158801 -0.15812531 -0.89423901
0.089501031 -0.15854834 -0.89446503
0.090818636 -0.15898472 -0.89468873
0.091856107 -0.15973376 -0.8940627
0.093117945 -0.16022681 -0.89424384
0.094133973 -0.16091093 -0.89353752
0.095645852 -0.16110572 -0.89452994
0.096927792 -0.16148086 -0.89464498
0.098433375 -0.16170095 -0.89564615
0.099979348 -0.16186967 -0.89662749
0.10179329 -0.16184814 -0.89850277
0.10336816 -0.16201781 -0.89948529
0.10488361 -0.16230528 -0.90051776
0.10718307 -0.16210978 -0.90423787
0.10891999 -0.1623659 -0.90620756
0.11087678 -0.16257694 -0.90910715
0.11287576 -0.16273077 -0.9119823
0.11467746 -0.16290204 -0.91392016
0.11622956 -0.16318534 -0.91495442
0.11781245 -0.16340643 -0.91596812
0.11939364 -0.16363956 -0.9169867
0.12099105 -0.1638433 -0.91799557
0.12259512 -0.16403937 -0.91900212
0.12389954 -0.16445443 -0.91916269
0.12550612 -0.16466057 -0.92017835
0.12713046 -0.16482922 -0.92118019
0.12842079 -0.16529046 -0.92137027
0.13003811 -0.16547258 -0.92238164
0.13197072 -0.16543742 -0.92422336
0.13388114 -0.16548017 -0.92608863
0.13608482 -0.16542251 -0.92881376
0.13829362 -0.16543971 -0.93154609
0.1401235 -0.16579591 -0.93352413
0.14232092 -0.16596822 -0.93629336
0.14453599 -0.16625419 -0.93908918
0.14638054 -0.16670237 -0.94108474
0.14863695 -0.16705512 -0.94384843
0.15007943 -0.16761428 -0.94507015
0.15193704 -0.1680678 -0.9470585
0.15371811 -0.16856924 -0.94908726
0.15509053 -0.16909397 -0.95035869
0.15697321 -0.16939624 -0.95227665
0.1589136 -0.1696652 -0.95413613
0.16047941 -0.16996546 -0.95527518
0.16244927 -0.17022046 -0.95708889
0.16467962 -0.17016305 -0.95868856
0.16678743 -0.17016356 -0.96041477
0.16899866 -0.16996475 -0.9620961
0.17067236 -0.16997491 -0.963166
0.17283714 -0.1696042 -0.96488214
0.17416188 -0.16978036 -0.96513367
0.17585365 -0.1695623 -0.96621835
0.17727998 -0.1696049 -0.96634811
0.17876443 -0.16960658 -0.96640486
0.17986329 -0.16983992 -0.96563196
0.18105812 -0.16999561 -0.96482128
0.18258613 -0.16969942 -0.9648
0.18348777 -0.17004041 -0.96313328
0.18444864 -0.17033488 -0.96139765
0.1860548 -0.16978528 -0.96120542
0.18733288 -0.16949502 -0.96019632
0.18858907 -0.16918474 -0.95910734
0.1896483 -0.16901283 -0.95718181
0.22908963 -0.18353702 -1.0385648
0.22973819 -0.18472064 -1.0349963
0.2311766 -0.18471986 -1.0340323
0.23284547 -0.18446197 -1.0339805
0.23449889 -0.184156 -1.0339187
0.23528945 -0.18426728 -1.0300785
0.23650278 -0.18397586 -1.0280824
0.23831888 -0.18344325 -1.0289575
0.24720404 -0.17978716 -1.0276814
0.25429136 -0.17678042 -1.0021473
0.25425419 -0.17634635 -0.99510956
0.25499299 -0.17628995 -0.99104601
0.25508446 -0.17554797 -0.98502159
0.25563046 -0.17481197 -0.98102349
0.25591812 -0.17408644 -0.97600991
0.25644091 -0.17340964 -0.97200596
0.25669655 -0.17277458 -0.9669888
0.25797009 -0.17231953 -0.96600676
0.25846043 -0.17182603 -0.96199363
0.25946724 -0.17143148 -0.95999634
0.26046905 -0.17113015 -0.9579941
0.26146445 -0.17086455 -0.95599115
0.2630021 -0.17067902 -0.95599842
0.26426369 -0.17053258 -0.95499712
0.26523849 -0.17042018 -0.9529894
0.26705712 -0.17042653 -0.95399463
0.26859114 -0.1704651 -0.95399332
0.2701242 -0.17055665 -0.95398986
0.27165538 -0.17069811 -0.95398474
0.27376291 -0.17093365 -0.95598745
0.2767652 -0.17143163 -0.96100509
0.27917203 -0.17208846 -0.96399891
0.28156266 -0.17287743 -0.96698815
0.28423774 -0.17385899 -0.97098351
0.28690568 -0.17503466 -0.97498482
0.28965881 -0.17590466 -0.9789874
0.2924321 -0.17674212 -0.98297745
0.29521623 -0.17757356 -0.98701954
0.29743263 -0.17801483 -0.98902571
0.2996816 -0.17821796 -0.99104172
0.30160326 -0.17828631 -0.99205285
0.30353862 -0.17830697 -0.99305016
0.30577558 -0.17814472 -0.99502754
0.30738741 -0.17809229 -0.99502784
0.30899921 -0.17805168 -0.99502444
0.31060299 -0.17793421 -0.99501759
0.31220162 -0.17781582 -0.99501026
0.31351003 -0.17787558 -0.99401832
0.31451863 -0.17790973 -0.99201828
0.31521958 -0.17800187 -0.98902303
0.31617224 -0.17784566 -0.98700052
0.31741494 -0.17760088 -0.98598766
0.31734496 -0.17714202 -0.98095953
0.31824455 -0.17656405 -0.97897166
0.31849265 -0.17579266 -0.97495002
0.31906614 -0.17508243 -0.97197396
0.31995934 -0.17469327 -0.96997559
0.32047594 -0.17432486 -0.96700871
0.32202312 -0.17417644 -0.96702236
0.32319823 -0.17405754 -0.96605021
0.32472777 -0.17413194 -0.96605897
0.32586947 -0.17436744 -0.9650895
0.32773599 -0.17469145 -0.96609473
0.32960424 -0.1751112 -0.96710455
0.33183405 -0.17553431 -0.96911073
0.33407879 -0.1760302 -0.97110593
0.33671781 -0.17634702 -0.97411877
0.33898667 -0.17667566 -0.97614658
0.34198451 -0.17688546 -0.98016989
0.34499833 -0.1770478 -0.9841426
0.34770057 -0.17716643 -0.9871068
0.35003227 -0.17728919 -0.98907584
0.35238037 -0.17736456 -0.99104863
0.35472307 -0.17735626 -0.99301046
0.35668465 -0.17749117 -0.99400592
0.35865077 -0.17758223 -0.99499869
0.36024487 -0.17777048 -0.99501359
0.36221653 -0.17784142 -0.99600476
0.36382148 -0.17799045 -0.99601561
0.36579323 -0.17801902 -0.99700409
0.36776429 -0.17806256 -0.99799597
0.36973482 -0.17812856 -0.99899143
0.37169862 -0.17808752 -0.99998289
0.37294468 -0.17807101 -0.99899006
0.37490472 -0.17793834 -0.99997997
0.37649465 -0.17772961 -0.99997342
0.37772098 -0.17752467 -0.99897254
0.3789396 -0.17721102 -0.99796498
0.3794373 -0.1770844 -0.99497658
0.38064963 -0.17682557 -0.99396801
0.38113698 -0.17678981 -0.99099416
0.38234687 -0.17661308 -0.98999417
0.38391754 -0.17629994 -0.98997432
0.38476199 -0.17632429 -0.98799819
0.38632929 -0.17597215 -0.98797321
0.38753742 -0.17590788 -0.98697996
0.38911995 -0.17571364 -0.98696518
0.3903223 -0.17568906 -0.98597682
0.39190859 -0.17559892 -0.9859699
0.39271805 -0.17578498 -0.98401153
0.39469469 -0.17564312 -0.98498577
0.39588493 -0.17581208 -0.98401576
0.39746875 -0.17587931 -0.9840225
0.39945677 -0.17583384 -0.98500204
0.40186176 -0.17570937 -0.98695135
0.40345085 -0.1759569 -0.98697615
0.40587506 -0.17587857 -0.98892552
0.40788919 -0.176037 -0.98991787
0.4103438 -0.17601779 -0.99185711
0.41280746 -0.17603204 -0.99379808
0.41483447 -0.17637262 -0.99479687
0.41638702 -0.17702353 -0.9948979
0.41791812 -0.17771471 -0.99502409
0.41990972 -0.17808591 -0.99607462
0.42139947 -0.17866033 -0.9962458
-0.27844265 -0.13930321 -0.78063053
-0.27645364 -0.13913499 -0.77869791
-0.27403104 -0.13912444 -0.77583271
-0.27210245 -0.13871819 -0.77382267
-0.26977149 -0.13839766 -0.77087575
-0.2674821 -0.1380472 -0.76788932
-0.26571339 -0.13766558 -0.76577652
-0.26340678 -0.13676265 -0.76284009
-0.26138514 -0.13579993 -0.76098609
-0.25905481 -0.13516444 -0.75805783
-0.25674698 -0.1345309 -0.7550866
-0.25413308 -0.13416186 -0.75105369
-0.25188929 -0.13371329 -0.74803424
-0.24967578 -0.13340442 -0.74502236
-0.24780624 -0.13322765 -0.74301356
-0.2456519 -0.1332369 -0.74000067
-0.24414949 -0.13323553 -0.73899871
-0.24267642 -0.13341904 -0.73799813
-0.2412295 -0.13361828 -0.73700553
-0.24006781 -0.13378988 -0.73700684
-0.23890889 -0.13398476 -0.73701006
-0.23777618 -0.13425314 -0.73702365
-0.23664027 -0.13451695 -0.73703849
-0.2354978 -0.13476276 -0.73705077
-0.23462743 -0.13498265 -0.73806721
-0.23375212 -0.13516247 -0.73907846
-0.23314621 -0.13525712 -0.74108428
-0.23251806 -0.13529629 -0.74307078
-0.23162474 -0.13543487 -0.74407089
-0.2309919 -0.13543743 -0.7460584
-0.23060966 -0.13530512 -0.74902284
-0.22970292 -0.13542482 -0.75002122
-0.22905008 -0.13541406 -0.75199854
-0.22813289 -0.13552797 -0.7529934
-0.22721559 -0.13565561 -0.75398874
-0.22603187 -0.13588768 -0.75400752
-0.22510126 -0.13595513 -0.75499821
-0.22416836 -0.13602202 -0.75598812
-0.22297847 -0.13624924 -0.75600833
-0.2217894 -0.13650566 -0.75603163
-0.22059396 -0.13674146 -0.75605345
-0.21965013 -0.13681059 -0.75704479
-0.21869905 -0.13681044 -0.75802863
-0.21774541 -0.13675551 -0.75900608
-0.21679157 -0.1366777 -0.75997812
-0.2158359 -0.13657945 -0.76094526
-0.21487609 -0.13643315 -0.76190454
-0.21391559 -0.13628389 -0.7628628
-0.21295075 -0.13611853 -0.76381898
-0.21198045 -0.13595437 -0.76477528
-0.21074973 -0.13597552 -0.764777
-0.20951755 -0.13598569 -0.7647776
-0.2080275 -0.13614592 -0.76382232
-0.20654081 -0.13629016 -0.7628603
-0.20505783 -0.13640334 -0.76189595
-0.2035799 -0.13654462 -0.76093692
-0.2023543 -0.13653924 -0.76093644
-0.20063947 -0.13685425 -0.75901794
-0.19941804 -0.1368636 -0.75901884
-0.19819793 -0.13688977 -0.75902152
-0.19697653 -0.13689919 -0.75902206
-0.19551997 -0.13708887 -0.75806105
-0.19430211 -0.13711968 -0.7580626
-0.19308399 -0.13714726 -0.75806427
-0.19209951 -0.13704933 -0.75903517
-0.19088373 -0.13711648 -0.75904131
-0.18967062 -0.13720433 -0.75904924
-0.18867883 -0.13714126 -0.76002491
-0.18746801 -0.13727285 -0.76003683
-0.18647203 -0.13724791 -0.76101732
-0.18546893 -0.1372066 -0.76199728
-0.1842605 -0.13738482 -0.76201284
-0.1832571 -0.13740851 -0.76299924
-0.18244916 -0.13729437 -0.76496094
-0.181242 -0.13751563 -0.7649796
-0.18023232 -0.13761228 -0.76597434
-0.17922106 -0.13772887 -0.76697105
-0.17801875 -0.13796887 -0.76698852
-0.17700648 -0.13810699 -0.76798618
-0.17599225 -0.13825764 -0.76898563
-0.17479634 -0.13851938 -0.76900125
-0.17378163 -0.13868658 -0.77000046
-0.17293979 -0.13877258 -0.77198803
-0.17174353 -0.13902915 -0.7719996
-0.17072058 -0.13920581 -0.77299958
-0.16952468 -0.13946205 -0.77300805
-0.1684991 -0.13964915 -0.77400637
-0.16747238 -0.13984776 -0.77500492
-0.16643941 -0.14003302 -0.77600372
-0.16557746 -0.14019327 -0.77800047
-0.16437197 -0.14044417 -0.77800125
-0.16350235 -0.14061268 -0.77999979
-0.16246355 -0.14084207 -0.78099912
-0.16158782 -0.14103977 -0.78299987
-0.16054413 -0.14128467 -0.78399909
-0.15949965 -0.1415423 -0.78499788
-0.15861619 -0.14178485 -0.78699934
-0.15756318 -0.14203914 -0.78799802
-0.15666687 -0.14227492 -0.79000014
-0.15576503 -0.14251615 -0.79200262
-0.15469967 -0.14277291 -0.793001
-0.15378068 -0.14298554 -0.79500425
-0.15270205 -0.14321518 -0.79600334
-0.15177307 -0.14343524 -0.79800653
-0.1506844 -0.14365537 -0.79900581
-0.1495938 -0.14388086 -0.80000484
-0.14849731 -0.14409305 -0.80100441
-0.14740069 -0.14431983 -0.80200326
-0.14615907 -0.14457025 -0.80199695
-0.14505816 -0.14479914 -0.80299568
-0.14395341 -0.14502577 -0.8039946
-0.14284529 -0.14525124 -0.80499363
-0.14173469 -0.14547598 -0.80599332
-0.14062715 -0.14573513 -0.80699098
-0.13964359 -0.14594921 -0.80899441
-0.13839947 -0.1462387 -0.80898583
-0.13741194 -0.14647526 -0.81098896
-0.1364149 -0.14670132 -0.81299287
-0.13541095 -0.14693031 -0.8149969
-0.13440561 -0.14719065 -0.81699902
-0.13351351 -0.14744665 -0.82000446
-0.13250127 -0.14774744 -0.82200545
-0.13148277 -0.14804912 -0.8240065
-0.13058768 -0.14840712 -0.82700682
-0.12958398 -0.14882612 -0.82900017
-0.12883657 -0.14936583 -0.83297735
-0.1277595 -0.14953823 -0.83496863
-0.12657493 -0.14974256 -0.83596772
-0.1252494 -0.14987247 -0.83597142
-0.12394942 -0.1500973 -0.83597803
-0.12278353 -0.15040272 -0.83698148
-0.12162729 -0.15078676 -0.83799148
-0.1204769 -0.1512398 -0.83900994
-0.11929604 -0.15157653 -0.84002382
-0.11802028 -0.15197945 -0.84006006
-0.11683138 -0.15234718 -0.84108484
-0.11563882 -0.15270311 -0.84211946
-0.11435628 -0.15315472 -0.84219152
-0.11319914 -0.15322964 -0.8441869
-0.11196401 -0.15338679 -0.84520626
-0.11076706 -0.15312871 -0.84712183
-0.10949884 -0.1531122 -0.84809363
-0.10830067 -0.152676 -0.84988505
-0.10710912 -0.15216176 -0.85160118
-0.10585363 -0.15198086 -0.85244304
-0.10459939 -0.15176083 -0.85327899
-0.10333528 -0.15152939 -0.85410148
-0.10198466 -0.15166824 -0.85412866
-0.10053816 -0.1522404 -0.85342944
-0.099083014 -0.15278612 -0.85269302
-0.097718962 -0.15290205 -0.8527354
-0.096248813 -0.15337969 -0.85197544
-0.094659381 -0.15422334 -0.85041541
-0.093163893 -0.15463643 -0.84963953
