# .PCD v0.7 - Point Cloud Data file format
VERSION 0.7
FIELDS x y z
SIZE 4 4 4
TYPE F F F
COUNT 1 1 1
WIDTH 1417
HEIGHT 1
VIEWPOINT 0 0 0 1 0 0 0
POINTS 1417
DATA ascii
-0.21415651 0.19554764 -0.64200002
-0.21208893 0.19554764 -0.64200002
-0.21002133 0.19554764 -0.64200002
-0.20795372 0.19554764 -0.64200002
-0.20588613 0.19554764 -0.64200002
-0.204136 0.19585222 -0.64300001
-0.20237945 0.19615683 -0.64400005
-0.20061646 0.19646142 -0.64500004
-0.19884701 0.196766 -0.64600003
-0.19707112 0.1970706 -0.64700001
-0.19559017 0.19767979 -0.64900005
-0.19379817 0.19798437 -0.65000004
-0.19199973 0.19828896 -0.65100002
-0.19019488 0.19859354 -0.65200001
-0.18809508 0.19859354 -0.65200001
-0.18599527 0.19859354 -0.65200001
-0.18389547 0.19859354 -0.65200001
-0.18151684 0.19828896 -0.65100002
-0.17914465 0.19798437 -0.65000004
-0.16526796 0.18701908 -0.61400002
-0.16275865 0.18640991 -0.61200005
-0.16026221 0.18580072 -0.61000001
-0.15803817 0.18549612 -0.60900003
-0.15556429 0.18488695 -0.60700005
-0.15310328 0.18427776 -0.60500002
-0.15090501 0.18397318 -0.60400003
-0.14871319 0.18366858 -0.60300004
-0.14628437 0.18305939 -0.60100001
-0.14410864 0.1827548 -0.60000002
-0.14193936 0.18245022 -0.59900004
-0.13977651 0.18214563 -0.59800005
-0.13785061 0.18214563 -0.59800005
-0.13569742 0.18184103 -0.597
-0.13377474 0.18184103 -0.597
-0.13185208 0.18184103 -0.597
-0.13014704 0.18214563 -0.59800005
-0.12843557 0.18245022 -0.59900004
-0.12671766 0.1827548 -0.60000002
-0.12520127 0.183364 -0.60200006
-0.12367202 0.18397318 -0.60400003
-0.1223314 0.18488695 -0.60700005
-0.12077314 0.18549612 -0.60900003
-0.11939712 0.18640991 -0.61200005
-0.11780988 0.18701908 -0.61400002
-0.11658707 0.18823744 -0.61800003
-0.11515307 0.18915123 -0.62100005
-0.11369973 0.190065 -0.62400001
-0.11240607 0.19128336 -0.62800002
-0.11108664 0.19250172 -0.63200003
-0.1095689 0.19341551 -0.63500005
-0.10803183 0.19432928 -0.63800001
-0.10630935 0.19493847 -0.64000005
-0.10473684 0.19585222 -0.64300001
-0.10298537 0.19646142 -0.64500004
-0.101221 0.1970706 -0.64700001
-0.099443763 0.19767979 -0.64900005
-0.097653627 0.19828896 -0.65100002
-0.095997408 0.19920275 -0.65400004
-0.094178289 0.19981192 -0.65600002
-0.092486635 0.2007257 -0.65900004
-0.090638541 0.20133488 -0.66100001
-0.088777564 0.20194407 -0.66300005
-0.087034374 0.20285782 -0.66600001
-0.085144423 0.20346703 -0.66800004
-0.083365805 0.20438078 -0.671
-0.081567876 0.20529456 -0.67400002
-0.079632834 0.20590375 -0.67600006
-0.077799469 0.20681752 -0.67900002
-0.075946793 0.20773129 -0.68200004
-0.07407479 0.20864508 -0.68500006
-0.072078548 0.20925425 -0.68700004
-0.070069417 0.20986342 -0.68900001
-0.068047412 0.21047263 -0.69100004
-0.065917261 0.21077721 -0.69200003
-0.06387271 0.21138638 -0.69400001
-0.07709147 0.26438528 -0.86800003
-0.074296027 0.26438528 -0.86800003
-0.071500592 0.26438528 -0.86800003
-0.068705149 0.26438528 -0.86800003
-0.065985635 0.26468986 -0.86900002
-0.063186981 0.26468986 -0.86900002
-0.060388319 0.26468986 -0.86900002
-0.057589654 0.26468986 -0.86900002
-0.054790996 0.26468986 -0.86900002
-0.051992334 0.26468986 -0.86900002
-0.049193673 0.26468986 -0.86900002
-0.046395015 0.26468986 -0.86900002
-0.043596353 0.26468986 -0.86900002
-0.040750742 0.26438528 -0.86800003
-0.037955306 0.26438528 -0.86800003
-0.035119358 0.2640807 -0.86700004
-0.032289851 0.26377609 -0.86600006
-0.029466785 0.26347151 -0.86500007
-0.026650161 0.2631669 -0.86400002
-0.023839979 0.26286232 -0.86300004
-0.021011835 0.26225317 -0.86100006
-0.01819657 0.26164395 -0.85900003
-0.015394189 0.26103479 -0.85700005
-0.01260469 0.2604256 -0.85500002
-0.009828073 0.25981641 -0.85300004
-0.0070643383 0.25920722 -0.85100001
-0.0043084058 0.25829345 -0.84800005
-0.0015736559 0.25768426 -0.84600002
0.0011482114 0.2570751 -0.84400004
0.0038571965 0.25646591 -0.84200007
0.0065532997 0.25585672 -0.84000003
0.0092365211 0.25524756 -0.83800006
0.011906859 0.25463834 -0.83600003
0.014564316 0.25402918 -0.83400005
0.017229574 0.2537246 -0.83300006
0.01988839 0.25342 -0.83200002
0.022540765 0.25311542 -0.83100003
0.025217045 0.25311542 -0.83100003
0.027859759 0.25281081 -0.83000004
0.030496033 0.25250623 -0.82900006
0.033165872 0.25250623 -0.82900006
0.035792485 0.25220165 -0.82800007
0.0384591 0.25220165 -0.82800007
0.041076049 0.25189704 -0.82700002
0.043739449 0.25189704 -0.82700002
0.046346735 0.25159246 -0.82600003
0.049006913 0.25159246 -0.82600003
0.051667091 0.25159246 -0.82600003
0.054327264 0.25159246 -0.82600003
0.056987446 0.25159246 -0.82600003
0.059719834 0.25189704 -0.82700002
0.062383231 0.25189704 -0.82700002
0.065046631 0.25189704 -0.82700002
0.067710027 0.25189704 -0.82700002
0.070373423 0.25189704 -0.82700002
0.07303682 0.25189704 -0.82700002
0.075700216 0.25189704 -0.82700002
0.078268856 0.25159246 -0.82600003
0.080929041 0.25159246 -0.82600003
0.083690412 0.25189704 -0.82700002
0.086353816 0.25189704 -0.82700002
0.089017212 0.25189704 -0.82700002
0.091680601 0.25189704 -0.82700002
0.094458088 0.25220165 -0.82800007
0.097124711 0.25220165 -0.82800007
0.099911846 0.25250623 -0.82900006
0.10258169 0.25250623 -0.82900006
0.10525152 0.25250623 -0.82900006
0.10805155 0.25281081 -0.83000004
0.110858 0.25311542 -0.83100003
0.11353428 0.25311542 -0.83100003
0.11649026 0.2537246 -0.83300006
0.1194591 0.25433376 -0.83500004
0.12229455 0.25463834 -0.83600003
0.12558496 0.25585672 -0.84000003
0.1287484 0.25677049 -0.84300005
0.13177522 0.25737968 -0.84500003
0.13497409 0.25829345 -0.84800005
0.13802989 0.25890264 -0.85000002
0.14109859 0.25951183 -0.85200006
0.14418016 0.26012102 -0.85400003
0.14744665 0.26103479 -0.85700005
0.15055721 0.26164395 -0.85900003
0.15385914 0.26255774 -0.86200005
0.1571804 0.26347151 -0.86500007
0.16052096 0.26438528 -0.86800003
0.16406903 0.26560366 -0.87200004
0.16745147 0.26651743 -0.87500006
0.17085321 0.2674312 -0.87800002
0.17427431 0.26834497 -0.88100004
0.17771474 0.26925877 -0.88400006
0.18117446 0.27017251 -0.88700002
0.18465352 0.27108631 -0.89000005
0.1883626 0.27230465 -0.89400005
0.19209744 0.27352303 -0.89800006
0.19607519 0.27504599 -0.90300006
0.20008515 0.27656895 -0.90800005
0.20435086 0.27839649 -0.91400003
0.20888205 0.28052863 -0.92100006
0.21345831 0.28266075 -0.92800003
0.21854615 0.28540209 -0.93700004
0.22392842 0.28844801 -0.94700003
0.2320116 0.29484442 -0.96800005
0.2380439 0.29849949 -0.98000002
0.24415353 0.3021546 -0.99200004
0.25034043 0.30580971 -1.0040001
0.25609949 0.30885562 -1.0140001
0.26192299 0.31190154 -1.024
0.26755187 0.31464285 -1.033
0.27297652 0.31707957 -1.041
0.27871814 0.31982091 -1.0500001
0.28424904 0.32225764 -1.0580001
0.29010335 0.32499894 -1.067
0.29574054 0.3274357 -1.075
0.30142927 0.32987243 -1.0830001
0.30688798 0.33200455 -1.09
0.31267655 0.3344413 -1.098
0.47225562 0.47303036 -1.5530001
0.4772571 0.47303036 -1.5530001
0.4828797 0.47363955 -1.5550001
0.48945644 0.47516248 -1.5600001
0.49638236 0.47699004 -1.5660001
0.50430751 0.47973135 -1.575
0.51293749 0.48308188 -1.5860001
0.52229148 0.48704156 -1.5990001
0.53304875 0.4922196 -1.6160001
0.54458165 0.49800685 -1.6350001
0.5569095 0.50440329 -1.6560001
0.57039118 0.51171345 -1.6800001
0.58402747 0.51902366 -1.7040001
0.59747237 0.52602929 -1.7270001
0.61071616 0.53273028 -1.7490001
0.62339693 0.53882205 -1.7690001
0.63549531 0.54430473 -1.7870001
0.64699191 0.54917818 -1.8030001
0.65750539 0.5531379 -1.8160001
0.66700673 0.55618382 -1.8260001
0.67509848 0.55801135 -1.8320001
0.68174201 0.55862051 -1.8340001
0.67864978 0.5513103 -1.8100001
0.65044415 0.52389711 -1.72
0.66971338 0.5348624 -1.756
0.64152336 0.50805837 -1.6680001
0.65814215 0.51689148 -1.697
0.64640141 0.50348949 -1.6530001
0.62452048 0.48247269 -1.5840001
0.62485194 0.47881758 -1.572
0.62470543 0.4748579 -1.559
0.62689877 0.47272575 -1.552
0.63026845 0.4715074 -1.5480001
0.63402277 0.47059363 -1.5450001
0.63858491 0.47028902 -1.544
0.6439743 0.47059363 -1.5450001
0.64979011 0.47120279 -1.5470001
0.65773505 0.47333494 -1.554
0.66487217 0.4748579 -1.559
0.67290092 0.47699004 -1.5660001
0.67924303 0.47790384 -1.5690001
0.68647677 0.4794268 -1.5740001
0.69330335 0.48064515 -1.5780001
0.69838536 0.48064515 -1.5780001
0.70302159 0.48034054 -1.577
0.70810038 0.48034054 -1.577
0.71317917 0.48034054 -1.577
0.71871346 0.48064515 -1.5780001
0.72379553 0.48064515 -1.5780001
0.72933948 0.48094973 -1.5790001
0.74140155 0.4855186 -1.5940001
0.74653506 0.4855186 -1.5940001
0.75119704 0.48521399 -1.5930001
0.75300395 0.48308188 -1.5860001
0.75667775 0.48216808 -1.5830001
0.7612946 0.4818635 -1.582
0.76493627 0.48094973 -1.5790001
0.77148443 0.4818635 -1.582
0.77510673 0.48094973 -1.5790001
0.77920377 0.48034054 -1.577
0.76449502 0.45353651 -1.4890001
0.76825702 0.45292735 -1.4870001
0.7275759 0.4185085 -1.3740001
-0.22484417 0.19378141 -0.64300001
-0.22277336 0.19378141 -0.64300001
-0.22070253 0.19378141 -0.64300001
-0.21863171 0.19378141 -0.64300001
-0.2165609 0.19378141 -0.64300001
-0.21449007 0.19378141 -0.64300001
-0.21208893 0.19348004 -0.64200002
-0.21002133 0.19348004 -0.64200002
-0.20795372 0.19348004 -0.64200002
-0.20620681 0.19378141 -0.64300001
-0.204136 0.19378141 -0.64300001
-0.20237945 0.1940828 -0.64400005
-0.20061646 0.19438416 -0.64500004
-0.19884701 0.19468552 -0.64600003
-0.19707112 0.19498689 -0.64700001
-0.19528878 0.19528826 -0.648
-0.19350003 0.19558965 -0.64900005
-0.19140989 0.19558965 -0.64900005
-0.18961146 0.19589101 -0.65000004
-0.1875181 0.19589101 -0.65000004
-0.18542475 0.19589101 -0.65000004
-0.18304934 0.19558965 -0.64900005
-0.18068035 0.19528826 -0.648
-0.17804222 0.19468552 -0.64600003
-0.17378265 0.19227456 -0.63800001
-0.16634463 0.18624714 -0.61800003
-0.16382244 0.18564442 -0.61600006
-0.16105039 0.18474029 -0.61300004
-0.15855718 0.18413754 -0.611
-0.15607685 0.1835348 -0.60900003
-0.15360941 0.18293208 -0.60700005
-0.15115485 0.18232933 -0.60500002
-0.1489598 0.18202795 -0.60400003
-0.14652778 0.18142521 -0.60200006
-0.14434882 0.18112384 -0.60100001
-0.14217632 0.18082246 -0.60000002
-0.14001024 0.1805211 -0.59900004
-0.13808113 0.1805211 -0.59900004
-0.13592473 0.18021974 -0.59800005
-0.13399883 0.18021974 -0.59800005
-0.13207294 0.18021974 -0.59800005
-0.13036469 0.1805211 -0.59900004
-0.12864999 0.18082246 -0.60000002
-0.12692885 0.18112384 -0.60100001
-0.12540925 0.18172659 -0.60300004
-0.12387677 0.18232933 -0.60500002
-0.1223314 0.18293208 -0.60700005
-0.12077314 0.1835348 -0.60900003
-0.11939712 0.18443893 -0.61200005
-0.11800175 0.18534303 -0.61500001
-0.11658707 0.18624714 -0.61800003
-0.11515307 0.18715127 -0.62100005
-0.11369973 0.18805537 -0.62400001
-0.11240607 0.18926086 -0.62800002
-0.11091088 0.19016497 -0.63100004
-0.10939635 0.19106907 -0.634
-0.1078625 0.19197319 -0.63700002
-0.10630935 0.19287731 -0.64000005
-0.10457396 0.19348004 -0.64200002
-0.1028257 0.1940828 -0.64400005
-0.10106456 0.19468552 -0.64600003
-0.099443763 0.19558965 -0.64900005
-0.097653627 0.19619238 -0.65100002
-0.095850624 0.19679514 -0.65300006
-0.094178289 0.19769923 -0.65600002
-0.092346296 0.19830199 -0.65800005
-0.090638541 0.19920608 -0.66100001
-0.088777564 0.19980884 -0.66300005
-0.087034374 0.20071293 -0.66600001
-0.08527188 0.20161705 -0.66900003
-0.083365805 0.20221978 -0.671
-0.081567876 0.20312391 -0.67400002
-0.079750627 0.20402803 -0.67700005
-0.077914052 0.20493212 -0.68000001
-0.076058149 0.20583625 -0.68300003
-0.074182928 0.20674036 -0.68600005
-0.072183467 0.2073431 -0.68800002
-0.070171118 0.20794585 -0.69000006
-0.068145894 0.20854858 -0.69200003
-0.066107772 0.20915131 -0.69400001
-0.063964754 0.2094527 -0.69500005
-0.07709147 0.26158983 -0.86800003
-0.07438162 0.26189122 -0.86900002
-0.071582958 0.26189122 -0.86900002
-0.068784304 0.26189122 -0.86900002
-0.066061571 0.26219258 -0.87000006
-0.063259691 0.26219258 -0.87000006
-0.060457814 0.26219258 -0.87000006
-0.057655931 0.26219258 -0.87000006
-0.05485405 0.26219258 -0.87000006
-0.052052166 0.26219258 -0.87000006
-0.049250286 0.26219258 -0.87000006
-0.046448406 0.26219258 -0.87000006
-0.043646522 0.26219258 -0.87000006
-0.040797692 0.26189122 -0.86900002
-0.03799903 0.26189122 -0.86900002
-0.035159864 0.26158983 -0.86800003
-0.032327138 0.26128846 -0.86700004
-0.029500851 0.2609871 -0.86600006
-0.026681008 0.26068574 -0.86500007
-0.023867603 0.26038435 -0.86400002
-0.021036237 0.25978163 -0.86200005
-0.018217754 0.25917888 -0.86000001
-0.015430115 0.25887749 -0.85900003
-0.012634175 0.25827476 -0.85700005
-0.0098395953 0.25737065 -0.85400003
-0.0070726397 0.2567679 -0.85200006
-0.004318567 0.25616515 -0.85000002
-0.0015773762 0.25556242 -0.84800005
0.0011495718 0.25465831 -0.84500003
0.0038617775 0.25405559 -0.84300005
0.0065611009 0.25345284 -0.84100002
0.0092475424 0.25285009 -0.83900005
0.011921101 0.25224733 -0.83700001
0.014599241 0.25194597 -0.83600003
0.017250257 0.25134325 -0.83400005
0.019912295 0.25104186 -0.83300006
0.022595016 0.25104186 -0.83300006
0.025247389 0.2507405 -0.83200002
0.027893323 0.25043911 -0.83100003
0.030569604 0.25043911 -0.83100003
0.033205878 0.25013775 -0.83000004
0.035835713 0.24983639 -0.82900006
0.03850555 0.24983639 -0.82900006
0.041125722 0.24953502 -0.82800007
0.043792341 0.24953502 -0.82800007
0.046458956 0.24953502 -0.82800007
0.049125575 0.24953502 -0.82800007
0.051792193 0.24953502 -0.82800007
0.054458812 0.24953502 -0.82800007
0.057125434 0.24953502 -0.82800007
0.059719834 0.24923363 -0.82700002
0.062383231 0.24923363 -0.82700002
0.065046631 0.24923363 -0.82700002
0.067710027 0.24923363 -0.82700002
0.070373423 0.24923363 -0.82700002
0.072948508 0.24893227 -0.82600003
0.075608686 0.24893227 -0.82600003
0.078268856 0.24893227 -0.82600003
0.080831066 0.2486309 -0.82500005
0.083488017 0.2486309 -0.82500005
0.086144976 0.2486309 -0.82500005
0.088801935 0.2486309 -0.82500005
0.091458887 0.2486309 -0.82500005
0.094115846 0.2486309 -0.82500005
0.096890099 0.24893227 -0.82600003
0.099550277 0.24893227 -0.82600003
0.10221046 0.24893227 -0.82600003
0.10487063 0.24893227 -0.82600003
0.10766099 0.24923363 -0.82700002
0.11032438 0.24923363 -0.82700002
0.11298779 0.24923363 -0.82700002
0.11607073 0.25013775 -0.83000004
0.11888684 0.25043911 -0.83100003
0.12170941 0.2507405 -0.83200002
0.12543546 0.25285009 -0.83900005
0.12844294 0.25345284 -0.84100002
0.13161927 0.25435695 -0.84400004
0.13481493 0.25526106 -0.84700006
0.13786751 0.25586379 -0.84900004
0.14109859 0.2567679 -0.85200006
0.14418016 0.25737065 -0.85400003
0.14727461 0.2579734 -0.85600007
0.15055721 0.25887749 -0.85900003
0.15385914 0.25978163 -0.86200005
0.1571804 0.26068574 -0.86500007
0.16052096 0.26158983 -0.86800003
0.16406903 0.26279533 -0.87200004
0.16745147 0.26369944 -0.87500006
0.17085321 0.26460356 -0.87800002
0.17427431 0.26550767 -0.88100004
0.17771474 0.26641178 -0.88400006
0.18117446 0.26731589 -0.88700002
0.18465352 0.26822001 -0.89000005
0.18815191 0.26912412 -0.89300007
0.19188352 0.27032959 -0.89700001
0.19585806 0.27183646 -0.90200007
0.19986479 0.27334329 -0.90700006
0.2039037 0.27485016 -0.91200006
0.20842844 0.27695975 -0.91900003
0.21299829 0.27906936 -0.92600006
0.21621375 0.27937073 -0.92700005
0.22274612 0.28389126 -0.94200003
0.23177192 0.29142556 -0.96700007
0.237801 0.29504198 -0.97900003
0.24415353 0.29895982 -0.99200004
0.25009108 0.30227488 -1.003
0.25609949 0.30558997 -1.0140001
0.26166719 0.30830228 -1.023
0.26729289 0.31101465 -1.0320001
0.27271432 0.31342563 -1.0400001
0.27845269 0.31613794 -1.049
0.28398034 0.31854892 -1.057
0.28983149 0.32126129 -1.0660001
0.29546544 0.32367221 -1.074
0.30142927 0.32638457 -1.0830001
0.30688798 0.32849416 -1.09
0.31267655 0.33090511 -1.098
0.47012699 0.46591926 -1.5460001
0.47510594 0.46591926 -1.5460001
0.48101649 0.46682334 -1.549
0.48726016 0.46802884 -1.5530001
0.49416351 0.46983704 -1.559
0.50174594 0.47224802 -1.567
0.51002669 0.47526172 -1.577
0.51902515 0.47887817 -1.5890001
0.52909046 0.48339874 -1.6040001
0.53991854 0.48852202 -1.6210001
0.55220133 0.49485081 -1.6420001
0.56495887 0.501481 -1.664
0.57820088 0.50841248 -1.687
0.59124511 0.51504266 -1.7090001
0.60408181 0.52137148 -1.7300001
0.61599654 0.5267961 -1.748
0.6269604 0.5313167 -1.7630001
0.63694435 0.53493315 -1.7750001
0.64591938 0.53764546 -1.784
0.653126 0.53885096 -1.7880001
0.65851581 0.5385496 -1.7870001
0.66241229 0.53704274 -1.7820001
0.66102743 0.5313167 -1.7630001
0.65687299 0.52348107 -1.7370001
0.65064412 0.51413858 -1.7060001
0.64036953 0.50178236 -1.6650001
0.63099426 0.49033028 -1.6270001
0.62724006 0.48339874 -1.6040001
0.62215483 0.47556311 -1.5780001
0.62206954 0.47164527 -1.5650001
0.62230122 0.46802884 -1.5530001
0.62447524 0.46591926 -1.5460001
0.62741846 0.46441239 -1.5410001
0.63115019 0.46350828 -1.5380001
0.6352762 0.4629055 -1.536
0.64272386 0.46471375 -1.5420001
0.64811003 0.46501514 -1.5430001
0.65392584 0.46561787 -1.5450001
0.6606074 0.46682334 -1.549
0.66774452 0.46833017 -1.554
0.67491382 0.46983704 -1.559
0.68167925 0.47104254 -1.5630001
0.68847042 0.47224802 -1.567
0.69395959 0.47254938 -1.5680001
0.69900942 0.47254938 -1.5680001
0.70450824 0.47285077 -1.5690001
0.70865679 0.47224802 -1.567
0.71415889 0.47254938 -1.5680001
0.71966743 0.47285077 -1.5690001
0.72518235 0.47315213 -1.5700001
0.73395962 0.47556311 -1.5780001
0.73950994 0.47586447 -1.5790001
0.74506676 0.47616583 -1.58
0.7487309 0.47526172 -1.577
0.75141966 0.47375485 -1.572
0.76033223 0.47616583 -1.58
0.7644518 0.47556311 -1.5780001
0.76660782 0.47375485 -1.572
0.77068877 0.47315213 -1.5700001
0.77475685 0.47254938 -1.5680001
0.77483344 0.46953568 -1.5580001
0.77684778 0.46772745 -1.552
0.77932721 0.46622059 -1.5470001
0.77974659 0.46350828 -1.5380001
0.78214878 0.46200141 -1.5330001
0.78503209 0.46079591 -1.529
0.78892297 0.46019319 -1.5270001
0.78968179 0.45778221 -1.5190001
0.78209764 0.447837 -1.4860001
0.80065119 0.45567262 -1.5120001
0.79220188 0.44813836 -1.4870001
-0.22311983 0.19200875 -0.64400005
-0.22104579 0.19200875 -0.64400005
-0.21897174 0.19200875 -0.64400005
-0.21689771 0.19200875 -0.64400005
-0.21449007 0.19171059 -0.64300001
-0.21241927 0.19171059 -0.64300001
-0.21034846 0.19171059 -0.64300001
-0.20827764 0.19171059 -0.64300001
-0.20620681 0.19171059 -0.64300001
-0.204136 0.19171059 -0.64300001
-0.20237945 0.19200875 -0.64400005
-0.20030543 0.19200875 -0.64400005
-0.1985392 0.19230691 -0.64500004
-0.19676653 0.19260505 -0.64600003
-0.19468604 0.19260505 -0.64600003
-0.19290371 0.19290319 -0.64700001
-0.19082001 0.19290319 -0.64700001
-0.18902804 0.19320133 -0.648
-0.18665263 0.19290319 -0.64700001
-0.18456893 0.19290319 -0.64700001
-0.18220317 0.19260505 -0.64600003
-0.17984387 0.19230691 -0.64500004
-0.1772154 0.19171059 -0.64300001
-0.17269309 0.18902723 -0.634
-0.16715214 0.18515129 -0.62100005
-0.16435432 0.18425684 -0.61800003
-0.16157584 0.18336238 -0.61500001
-0.1590762 0.18276609 -0.61300004
-0.15633313 0.18187164 -0.61000001
-0.15386248 0.18127534 -0.60800004
-0.15165454 0.1809772 -0.60700005
-0.14920641 0.18038088 -0.60500002
-0.14701459 0.18008274 -0.60400003
-0.14458901 0.17948644 -0.60200006
-0.14241327 0.17918828 -0.60100001
-0.14024398 0.17889014 -0.60000002
-0.13808113 0.17859198 -0.59900004
-0.13615203 0.17859198 -0.59900004
-0.13422291 0.17859198 -0.59900004
-0.13229379 0.17859198 -0.59900004
-0.13036469 0.17859198 -0.59900004
-0.12864999 0.17889014 -0.60000002
-0.12714005 0.17948644 -0.60200006
-0.12540925 0.1797846 -0.60300004
-0.12387677 0.18038088 -0.60500002
-0.1223314 0.1809772 -0.60700005
-0.12097146 0.18187164 -0.61000001
-0.11939712 0.18246794 -0.61200005
-0.11800175 0.18336238 -0.61500001
-0.11658707 0.18425684 -0.61800003
-0.11515307 0.18515129 -0.62100005
-0.11369973 0.18604574 -0.62400001
-0.11222707 0.18694019 -0.62700003
-0.11091088 0.18813279 -0.63100004
-0.10939635 0.18902723 -0.634
-0.10769317 0.18962355 -0.63600004
-0.10614324 0.19051801 -0.63900006
-0.10441107 0.19111429 -0.64100003
-0.10266603 0.19171059 -0.64300001
-0.10106456 0.19260505 -0.64600003
-0.099290527 0.19320133 -0.648
-0.097503625 0.19379765 -0.65000004
-0.095850624 0.19469211 -0.65300006
-0.094178289 0.19558655 -0.65600002
-0.092346296 0.19618286 -0.65800005
-0.090638541 0.19707729 -0.66100001
-0.088777564 0.1976736 -0.66300005
-0.087034374 0.19856805 -0.66600001
-0.08527188 0.1994625 -0.66900003
-0.083490051 0.20035696 -0.67200005
-0.081688896 0.2012514 -0.67500001
-0.079868428 0.20214586 -0.67800003
-0.078028634 0.20304032 -0.68100005
-0.076169506 0.20393474 -0.68400002
-0.074182928 0.20453106 -0.68600005
-0.072288379 0.2054255 -0.68900001
-0.070374511 0.20631996 -0.69200003
-0.068244368 0.2066181 -0.69300002
-0.066203035 0.20721442 -0.69500005
-0.064056784 0.20751256 -0.69600004
-0.06199291 0.20810886 -0.69800001
-0.074467219 0.25939071 -0.87000006
-0.071665339 0.25939071 -0.87000006
-0.068863459 0.25939071 -0.87000006
-0.066061571 0.25939071 -0.87000006
-0.063332409 0.25968885 -0.87100005
-0.060527306 0.25968885 -0.87100005
-0.0577222 0.25968885 -0.87100005
-0.054917101 0.25968885 -0.87100005
-0.052111998 0.25968885 -0.87100005
-0.049306896 0.25968885 -0.87100005
-0.046501793 0.25968885 -0.87100005
-0.043646522 0.25939071 -0.87000006
-0.040844642 0.25939071 -0.87000006
-0.03799903 0.25909254 -0.86900002
-0.035200369 0.25909254 -0.86900002
-0.032364421 0.2587944 -0.86800003
-0.029534915 0.25849625 -0.86700004
-0.026711851 0.25819811 -0.86600006
-0.023895228 0.25789994 -0.86500007
-0.021060642 0.25730366 -0.86300004
-0.018260119 0.25700548 -0.86200005
-0.015448078 0.2564092 -0.86000001
-0.012648917 0.25581288 -0.85800004
-0.009862639 0.2552166 -0.85600007
-0.0070892419 0.25462028 -0.85400003
-0.0043236474 0.25372583 -0.85100001
-0.0015792364 0.25312954 -0.84900004
0.0011522928 0.25253326 -0.84700006
0.0038663584 0.2516388 -0.84400004
0.0065689026 0.25104249 -0.84200007
0.0092585646 0.2504462 -0.84000003
0.011949587 0.25014803 -0.83900005
0.014616705 0.24955173 -0.83700001
0.017291624 0.24925359 -0.83600003
0.019960104 0.24895544 -0.83500004
0.02262214 0.24865729 -0.83400005
0.025277736 0.24835914 -0.83300006
0.02792689 0.24806099 -0.83200002
0.030606391 0.24806099 -0.83200002
0.033245884 0.24776283 -0.83100003
0.035922166 0.24776283 -0.83100003
0.038551997 0.24746469 -0.83000004
0.041225057 0.24746469 -0.83000004
0.043845229 0.24716654 -0.82900006
0.046515066 0.24716654 -0.82900006
0.049184904 0.24716654 -0.82900006
0.051854745 0.24716654 -0.82900006
0.054458812 0.2468684 -0.82800007
0.057125434 0.2468684 -0.82800007
0.059792049 0.2468684 -0.82800007
0.062458664 0.2468684 -0.82800007
0.065046631 0.24657023 -0.82700002
0.067710027 0.24657023 -0.82700002
0.07028833 0.24627209 -0.82600003
0.072860196 0.24597394 -0.82500005
0.075517148 0.24597394 -0.82500005
0.07807935 0.24567579 -0.82400006
0.080635108 0.24537763 -0.82300001
0.083285622 0.24537763 -0.82300001
0.085831724 0.24507949 -0.82200003
0.088371381 0.24478133 -0.82100004
0.091126308 0.24507949 -0.82200003
0.093773611 0.24507949 -0.82200003
0.096420899 0.24507949 -0.82200003
0.098947674 0.24478133 -0.82100004
0.10171549 0.24507949 -0.82200003
0.10410886 0.24448319 -0.82000005
0.10714027 0.24537763 -0.82300001
0.10979077 0.24537763 -0.82300001
0.11230467 0.24507949 -0.82200003
0.11551134 0.24627209 -0.82600003
0.11817151 0.24627209 -0.82600003
0.12097798 0.24657023 -0.82700002
0.12214632 0.24358873 -0.81700003
0.12325025 0.24060723 -0.80700004
0.12460165 0.23822203 -0.79900002
0.12653822 0.23702942 -0.79500002
0.13770512 0.2528314 -0.84800005
0.14060175 0.25312954 -0.84900004
0.14367367 0.25372583 -0.85100001
0.1469305 0.25462028 -0.85400003
0.15020667 0.25551474 -0.85700005
0.15385914 0.25700548 -0.86200005
0.15736212 0.25819811 -0.86600006
0.16089083 0.25939071 -0.87000006
0.16425717 0.26028514 -0.87300003
0.16764285 0.2611796 -0.87600005
0.17104782 0.26207405 -0.87900007
0.17427431 0.26267034 -0.88100004
0.17771474 0.2635648 -0.88400006
0.18097021 0.26416111 -0.88600004
0.18444605 0.26505557 -0.88900006
0.18794121 0.26594999 -0.89200002
0.1916696 0.26714259 -0.89600003
0.19542377 0.26833519 -0.90000004
0.19942406 0.26982597 -0.90500003
0.20368014 0.27161488 -0.91100007
0.20797485 0.27340376 -0.91700006
0.21253824 0.27549079 -0.92400002
0.21574727 0.27578896 -0.92500007
0.22250965 0.28055936 -0.94100004
0.23153223 0.2880131 -0.96600002
0.237801 0.29188907 -0.97900003
0.24390741 0.29546687 -0.99100006
0.25009108 0.29904467 -1.003
0.25584692 0.30202618 -1.013
0.26166719 0.30500767 -1.023
0.26703387 0.30739287 -1.031
0.27271432 0.31007624 -1.0400001
0.27818725 0.31246147 -1.0480001
0.28371167 0.31484663 -1.056
0.28955957 0.31753001 -1.0650001
0.29546544 0.32021332 -1.074
0.30115095 0.32259855 -1.082
0.30716953 0.32528192 -1.0910001
0.31296131 0.32766712 -1.0990001
0.32715628 0.33869866 -1.136
0.33518299 0.34317091 -1.151
0.34153974 0.34585428 -1.1600001
0.34706149 0.34764314 -1.166
0.46860653 0.4594495 -1.5410001
0.47326204 0.45915136 -1.5400001
0.47915331 0.46004581 -1.5430001
0.48537764 0.46123838 -1.5470001
0.4919447 0.46272916 -1.552
0.49950457 0.46511436 -1.5600001
0.50743943 0.46779773 -1.5690001
0.51608539 0.47107735 -1.58
0.52546203 0.47495329 -1.5930001
0.53592163 0.47972372 -1.6090001
0.54715687 0.48509043 -1.6270001
0.55918705 0.49105343 -1.6470001
0.57168889 0.49731457 -1.6680001
0.58432591 0.50357574 -1.6890001
0.59639978 0.50924057 -1.7080001
0.60753894 0.51401097 -1.7240001
0.61735862 0.51758879 -1.7360001
0.62582022 0.51997399 -1.7440001
0.6328851 0.52116656 -1.748
0.63851464 0.52116656 -1.748
0.64230162 0.51967585 -1.743
0.64419782 0.51669431 -1.733
0.64303005 0.51132762 -1.715
0.63834286 0.5032776 -1.6880001
0.63386315 0.49552566 -1.6620001
0.62729287 0.486283 -1.631
0.62284994 0.47882926 -1.6060001
0.62020117 0.47286627 -1.5860001
0.61781788 0.46720138 -1.567
0.61729968 0.4630273 -1.5530001
0.6178934 0.45974764 -1.5420001
0.61962807 0.45736244 -1.534
0.62253261 0.4558717 -1.529
0.62581539 0.4546791 -1.5250001
0.6303131 0.45438093 -1.524
0.63605487 0.45497724 -1.526
0.64012939 0.45438093 -1.524
0.64630729 0.45527539 -1.5270001
0.65293092 0.45646799 -1.531
0.65958035 0.45766059 -1.5350001
0.6666885 0.45915136 -1.5400001
0.67339265 0.46034393 -1.544
0.68012267 0.46153656 -1.5480001
0.68599325 0.46213284 -1.5500001
0.69187671 0.46272916 -1.552
0.69732398 0.4630273 -1.5530001
0.70232552 0.4630273 -1.5530001
0.70778245 0.46332544 -1.554
0.71324593 0.46362361 -1.5550001
0.72010148 0.46481618 -1.559
0.72744793 0.46630698 -1.5640001
0.7320165 0.46600881 -1.5630001
0.73846495 0.46690327 -1.5660001
0.74208397 0.46600881 -1.5630001
0.74759573 0.46630698 -1.5640001
0.75263268 0.46630698 -1.5640001
0.75766963 0.46630698 -1.5640001
0.76173115 0.46571064 -1.562
0.76725256 0.46600881 -1.5630001
0.77129811 0.46541253 -1.5610001
0.77383876 0.46392176 -1.5560001
0.7753461 0.4618347 -1.549
0.77630466 0.4594495 -1.5410001
0.77873254 0.45795873 -1.536
0.7816385 0.45676616 -1.5320001
0.78554559 0.45616984 -1.5300001
0.78892297 0.45527539 -1.5270001
0.79540038 0.45616984 -1.5300001
0.79980475 0.4558717 -1.529
0.79578173 0.45080313 -1.5120001
0.80118072 0.4511013 -1.5130001
0.79699665 0.44603273 -1.4960001
-0.59373051 0.44357422 -1.5040001
-0.21897174 0.18993472 -0.64400005
-0.21689771 0.18993472 -0.64400005
-0.21482366 0.18993472 -0.64400005
-0.21241927 0.18963976 -0.64300001
-0.21034846 0.18963976 -0.64300001
-0.20827764 0.18963976 -0.64300001
-0.20620681 0.18963976 -0.64300001
-0.204136 0.18963976 -0.64300001
-0.20206518 0.18963976 -0.64300001
-0.20030543 0.18993472 -0.64400005
-0.19823138 0.18993472 -0.64400005
-0.19615735 0.18993472 -0.64400005
-0.19438468 0.19022964 -0.64500004
-0.19230741 0.19022964 -0.64500004
-0.19023016 0.19022964 -0.64500004
-0.18815291 0.19022964 -0.64500004
-0.18607566 0.19022964 -0.64500004
-0.18371314 0.18993472 -0.64400005
-0.18135703 0.18963976 -0.64300001
-0.17872857 0.18904991 -0.64100003
-0.17611298 0.18846007 -0.63900006
-0.17242071 0.18669048 -0.63300002
-0.16769046 0.18374118 -0.62300003
-0.16488621 0.18285638 -0.62
-0.1621013 0.18197161 -0.61700004
-0.15933569 0.18108681 -0.61400002
-0.1568457 0.18049696 -0.61200005
-0.15436859 0.1799071 -0.61000001
-0.15190439 0.17931724 -0.60800004
-0.14945304 0.17872737 -0.60600001
-0.14725798 0.17843245 -0.60500002
-0.14482918 0.17784259 -0.60300004
-0.14265025 0.17754766 -0.60200006
-0.14047772 0.17725272 -0.60100001
-0.13831164 0.1769578 -0.60000002
-0.13637932 0.1769578 -0.60000002
-0.13444698 0.1769578 -0.60000002
-0.13251466 0.1769578 -0.60000002
-0.13058232 0.1769578 -0.60000002
-0.12886441 0.17725272 -0.60100001
-0.12714005 0.17754766 -0.60200006
-0.12561722 0.17813753 -0.60400003
-0.12408151 0.17872737 -0.60600001
-0.12253293 0.17931724 -0.60800004
-0.12097146 0.1799071 -0.61000001
-0.11959221 0.18079188 -0.61300004
-0.11800175 0.18138173 -0.61500001
-0.11658707 0.18226653 -0.61800003
-0.11515307 0.18315133 -0.62100005
-0.11369973 0.18403611 -0.62400001
-0.11222707 0.18492091 -0.62700003
-0.11073511 0.18580569 -0.63000005
-0.1092238 0.18669048 -0.63300002
-0.10769317 0.18757527 -0.63600004
-0.10597713 0.18816513 -0.63800001
-0.10441107 0.18904991 -0.64100003
-0.10266603 0.18963976 -0.64300001
-0.10090812 0.19022964 -0.64500004
-0.099290527 0.19111441 -0.648
-0.097503625 0.19170429 -0.65000004
-0.095850624 0.19258907 -0.65300006
-0.094178289 0.19347386 -0.65600002
-0.092346296 0.19406372 -0.65800005
-0.090638541 0.19494851 -0.66100001
-0.088911466 0.1958333 -0.66400003
-0.087034374 0.19642316 -0.66600001
-0.08527188 0.19730794 -0.66900003
-0.083490051 0.19819275 -0.67200005
-0.081688896 0.19907752 -0.67500001
-0.079868428 0.19996232 -0.67800003
-0.078028634 0.2008471 -0.68100005
-0.076169506 0.20173189 -0.68400002
-0.074291065 0.20261668 -0.68700004
-0.072393306 0.20350148 -0.69000006
-0.070476204 0.20438625 -0.69300002
-0.068441324 0.20497613 -0.69500005
-0.066298291 0.20527105 -0.69600004
-0.064148821 0.20556597 -0.69700003
-0.077446729 0.25717866 -0.87200004
-0.074467219 0.25658882 -0.87000006
-0.071665339 0.25658882 -0.87000006
-0.068942614 0.25688374 -0.87100005
-0.066137508 0.25688374 -0.87100005
-0.063332409 0.25688374 -0.87100005
-0.060527306 0.25688374 -0.87100005
-0.057788469 0.25717866 -0.87200004
-0.054980151 0.25717866 -0.87200004
-0.052171826 0.25717866 -0.87200004
-0.049306896 0.25688374 -0.87100005
-0.046501793 0.25688374 -0.87100005
-0.04369669 0.25688374 -0.87100005
-0.040844642 0.25658882 -0.87000006
-0.038042761 0.25658882 -0.87000006
-0.035200369 0.25629386 -0.86900002
-0.032401707 0.25629386 -0.86900002
-0.029568981 0.25599894 -0.86800003
-0.026742697 0.25570402 -0.86700004
-0.023922853 0.25540909 -0.86600006
-0.021085046 0.25481921 -0.86400002
-0.018281303 0.25452429 -0.86300004
-0.015466041 0.25393444 -0.86100006
-0.01266366 0.25334457 -0.85900003
-0.0098741604 0.25275472 -0.85700005
-0.0070975432 0.25216487 -0.85500002
-0.004333809 0.25157499 -0.85300004
-0.0015810964 0.25069022 -0.85000002
0.0011536533 0.25010037 -0.84800005
0.0038755203 0.2495105 -0.84600002
0.0065767043 0.24862571 -0.84300005
0.009280609 0.24833079 -0.84200007
0.011963829 0.24774092 -0.84000003
0.014634169 0.24715106 -0.83800006
0.017312307 0.24685612 -0.83700001
0.019984007 0.2465612 -0.83600003
0.022649264 0.24626628 -0.83500004
0.025308082 0.24597135 -0.83400005
0.027960457 0.24567641 -0.83300006
0.030643178 0.24567641 -0.83300006
0.033285893 0.24538147 -0.83200002
0.035922166 0.24508655 -0.83100003
0.038598444 0.24508655 -0.83100003
0.041225057 0.24479163 -0.83000004
0.043898117 0.24479163 -0.83000004
0.046515066 0.2444967 -0.82900006
0.049184904 0.2444967 -0.82900006
0.051854745 0.2444967 -0.82900006
0.054524582 0.2444967 -0.82900006
0.057125434 0.24420178 -0.82800007
0.059792049 0.24420178 -0.82800007
0.062383231 0.24390683 -0.82700002
0.064967975 0.2436119 -0.82600003
0.067546278 0.24331698 -0.82500005
0.070203237 0.24331698 -0.82500005
0.072771877 0.24302205 -0.82400006
0.075334072 0.24272712 -0.82300001
0.077795081 0.24213725 -0.82100004
0.080341183 0.24184233 -0.82000005
0.082880832 0.24154741 -0.81900007
0.085414052 0.24125247 -0.81800002
0.08794082 0.24095754 -0.81700003
0.090572014 0.24095754 -0.81700003
0.093203209 0.24095754 -0.81700003
0.094778694 0.23830317 -0.80800003
0.097260378 0.23800825 -0.80700004
0.10122053 0.24125247 -0.81800002
0.10220443 0.23741838 -0.80500007
0.10609881 0.24036768 -0.81500006
0.10818994 0.23918797 -0.81100005
0.11011869 0.23771332 -0.80600005
0.1080996 0.22798064 -0.77300006
0.11015989 0.22709584 -0.77000004
0.11220086 0.22621106 -0.76700002
0.11422251 0.22532627 -0.76400006
0.11622483 0.22444148 -0.76100004
0.11820783 0.22355668 -0.75800002
0.12033068 0.22296683 -0.75600004
0.12244063 0.22237696 -0.75400001
0.12453771 0.22178711 -0.75200003
0.12662192 0.22119726 -0.75000006
0.12886527 0.22090231 -0.74900001
0.1311022 0.22060739 -0.74800003
0.13297571 0.21972261 -0.74500006
0.16126069 0.25717866 -0.87200004
0.16444533 0.25776851 -0.87400001
0.16783421 0.25865331 -0.87700003
0.17104782 0.25924319 -0.87900007
0.17447212 0.26012796 -0.88200003
0.17771474 0.26071784 -0.88400006
0.18097021 0.26130769 -0.88600004
0.18444605 0.26219249 -0.88900006
0.18794121 0.26307726 -0.89200002
0.1916696 0.26425698 -0.89600003
0.19542377 0.26543671 -0.90000004
0.19920371 0.26661643 -0.90400004
0.20345655 0.26838601 -0.91000003
0.20774806 0.27015558 -0.91600007
0.21230823 0.27222008 -0.92300004
0.21551402 0.272515 -0.92400002
0.22250965 0.27752882 -0.94100004
0.22865607 0.28136289 -0.95400006
0.23755811 0.28844121 -0.97800004
0.24390741 0.29227531 -0.99100006
0.25009108 0.29581445 -1.003
0.25584692 0.29876375 -1.013
0.26141143 0.30141813 -1.0220001
0.26703387 0.30407247 -1.031
0.27245206 0.30643192 -1.039
0.2779218 0.30879137 -1.0470001
0.28344303 0.31115079 -1.0550001
0.28928769 0.31380516 -1.064
0.29519033 0.31645954 -1.0730001
0.30115095 0.31911388 -1.082
0.30716953 0.32176828 -1.0910001
0.31324607 0.32442263 -1.1
0.32600433 0.3338604 -1.1320001
0.33430934 0.33857924 -1.148
0.3400676 0.34064376 -1.1550001
0.34557322 0.34241334 -1.161
0.34991407 0.34300321 -1.1630001
0.46647784 0.45242211 -1.534
0.47141814 0.45242211 -1.534
0.47729009 0.45330688 -1.5370001
0.48349512 0.45448664 -1.5410001
0.49004287 0.45596129 -1.5460001
0.49726322 0.45802578 -1.5530001
0.50485206 0.46038523 -1.5610001
0.51347232 0.46362942 -1.572
0.52216345 0.46687365 -1.5830001
0.53192472 0.4710027 -1.5970001
0.54244864 0.47572154 -1.613
0.5534153 0.48073536 -1.6300001
0.56517678 0.486339 -1.649
0.57671475 0.49164775 -1.6670001
0.58801949 0.49666157 -1.6840001
0.59802407 0.50049561 -1.697
0.60668999 0.50314999 -1.7060001
0.61397845 0.50462466 -1.7110001
0.61985093 0.50491959 -1.7120001
0.62390333 0.50373989 -1.7080001
0.62608749 0.50108552 -1.6990001
0.62672681 0.49725142 -1.6860001
0.62615758 0.49253255 -1.6700001
0.62170357 0.48486435 -1.6440001
0.6186077 0.47837594 -1.6220001
0.6146009 0.47129759 -1.598
0.6116029 0.46510407 -1.577
0.61003393 0.46009028 -1.5600001
0.60914403 0.45566633 -1.5450001
0.60934991 0.45212719 -1.5330001
0.61027998 0.44917789 -1.5230001
0.61235732 0.44711336 -1.516
0.61520392 0.44563872 -1.511
0.61801833 0.44416407 -1.506
0.62204129 0.44357422 -1.5040001
0.626885 0.44357422 -1.5040001
0.6321488 0.44386917 -1.5050001
0.63784224 0.44445902 -1.5070001
0.64397496 0.44534382 -1.5100001
0.6505568 0.44652352 -1.5140001
0.65716439 0.44770324 -1.5180001
0.66379774 0.44888297 -1.5220001
0.67001748 0.44976774 -1.5250001
0.6762566 0.45065254 -1.5280001
0.68206918 0.45124239 -1.5300001
0.68789458 0.45183223 -1.5320001
0.69373298 0.45242211 -1.534
0.69958419 0.45301196 -1.536
0.70498967 0.45330688 -1.5370001
0.71086347 0.45389676 -1.539
0.7172153 0.45478153 -1.5420001
0.72311801 0.45537138 -1.544
0.72903371 0.45596129 -1.5460001
0.73401266 0.45596129 -1.5460001
0.73994768 0.45655113 -1.5480001
0.74493307 0.45655113 -1.5480001
0.74991852 0.45655113 -1.5480001
0.75441623 0.45625618 -1.5470001
0.7593984 0.45625618 -1.5470001
0.76388657 0.45596129 -1.5460001
0.76687622 0.45478153 -1.5420001
0.77034062 0.45389676 -1.539
0.77378577 0.45301196 -1.536
0.7777186 0.45242211 -1.534
0.78112829 0.45153731 -1.531
0.78349185 0.45006266 -1.526
0.78737301 0.44947281 -1.524
0.79176134 0.44917789 -1.5230001
0.79614311 0.44888297 -1.5220001
0.79893959 0.44770324 -1.5180001
0.80488747 0.44829309 -1.5200001
0.81990492 0.45389676 -1.539
-0.60141194 0.43727195 -1.4990001
-0.59738028 0.43785536 -1.501
-0.59294099 0.4381471 -1.5020001
-0.58849525 0.43843877 -1.503
-0.21931176 0.18815237 -0.64500004
-0.21689771 0.18786067 -0.64400005
-0.21482366 0.18786067 -0.64400005
-0.21274965 0.18786067 -0.64400005
-0.21067561 0.18786067 -0.64400005
-0.20827764 0.18756895 -0.64300001
-0.20620681 0.18756895 -0.64300001
-0.204136 0.18756895 -0.64300001
-0.20206518 0.18756895 -0.64300001
-0.19999439 0.18756895 -0.64300001
-0.19792356 0.18756895 -0.64300001
-0.19585274 0.18756895 -0.64300001
-0.19378193 0.18756895 -0.64300001
-0.19171111 0.18756895 -0.64300001
-0.18964028 0.18756895 -0.64300001
-0.18727778 0.18727724 -0.64200002
-0.18521018 0.18727724 -0.64200002
-0.18285732 0.18698554 -0.64100003
-0.18051089 0.18669383 -0.64000005
-0.17789207 0.18611041 -0.63800001
-0.17528614 0.185527 -0.63600004
-0.17187594 0.18406846 -0.63100004
-0.16849796 0.1826099 -0.62600005
-0.16515216 0.18115136 -0.62100005
-0.16236402 0.18027623 -0.61800003
-0.15959519 0.1794011 -0.61500001
-0.15710199 0.17881769 -0.61300004
-0.15462165 0.17823426 -0.611
-0.15215422 0.17765085 -0.60900003
-0.14969967 0.17706743 -0.60700005
-0.14750138 0.17677571 -0.60600001
-0.14506936 0.1761923 -0.60400003
-0.1428872 0.17590059 -0.60300004
-0.14071147 0.17560889 -0.60200006
-0.13854216 0.17531717 -0.60100001
-0.13660662 0.17531717 -0.60100001
-0.13444698 0.17502546 -0.60000002
-0.13273551 0.17531717 -0.60100001
-0.13079995 0.17531717 -0.60100001
-0.12907884 0.17560889 -0.60200006
-0.12735124 0.17590059 -0.60300004
-0.12561722 0.1761923 -0.60400003
-0.12408151 0.17677571 -0.60600001
-0.12253293 0.17735915 -0.60800004
-0.12097146 0.17794256 -0.61000001
-0.11959221 0.17881769 -0.61300004
-0.11800175 0.1794011 -0.61500001
-0.11658707 0.18027623 -0.61800003
-0.11515307 0.18115136 -0.62100005
-0.11369973 0.18202648 -0.62400001
-0.11222707 0.18290161 -0.62700003
-0.11073511 0.18377675 -0.63000005
-0.10905125 0.18436016 -0.63200003
-0.10752385 0.18523529 -0.63500005
-0.10597713 0.18611041 -0.63800001
-0.10424819 0.18669383 -0.64000005
-0.10266603 0.18756895 -0.64300001
-0.10090812 0.18815237 -0.64500004
-0.099290527 0.18902749 -0.648
-0.097503625 0.18961093 -0.65000004
-0.095850624 0.19048606 -0.65300006
-0.094178289 0.19136117 -0.65600002
-0.092346296 0.1919446 -0.65800005
-0.090638541 0.19281971 -0.66100001
-0.088911466 0.19369484 -0.66400003
-0.087165065 0.19456999 -0.66700006
-0.085399345 0.19544511 -0.67000002
-0.083614297 0.19632024 -0.67300004
-0.081809923 0.19719537 -0.67600006
-0.07998623 0.19807048 -0.67900002
-0.078143209 0.19894561 -0.68200004
-0.07628087 0.19982074 -0.68500006
-0.074399203 0.20069586 -0.68800002
-0.072498225 0.201571 -0.69100004
-0.070476204 0.20215441 -0.69300002
-0.068441324 0.20273784 -0.69500005
-0.066393547 0.20332125 -0.69700003
-0.064240858 0.20361295 -0.69800001
-0.077446729 0.25437033 -0.87200004
-0.074467219 0.25378692 -0.87000006
-0.071747713 0.25407863 -0.87100005
-0.068942614 0.25407863 -0.87100005
-0.066137508 0.25407863 -0.87100005
-0.063332409 0.25407863 -0.87100005
-0.060596798 0.25437033 -0.87200004
-0.057788469 0.25437033 -0.87200004
-0.054980151 0.25437033 -0.87200004
-0.052171826 0.25437033 -0.87200004
-0.049363501 0.25437033 -0.87200004
-0.046555184 0.25437033 -0.87200004
-0.04369669 0.25407863 -0.87100005
-0.040891588 0.25407863 -0.87100005
-0.038042761 0.25378692 -0.87000006
-0.035240877 0.25378692 -0.87000006
-0.032401707 0.25349522 -0.86900002
-0.029568981 0.25320351 -0.86800003
-0.026742697 0.25291181 -0.86700004
-0.023922853 0.2526201 -0.86600006
-0.021109451 0.2523284 -0.86500007
-0.018281303 0.25174496 -0.86300004
-0.015466041 0.25116155 -0.86100006
-0.012678402 0.25086984 -0.86000001
-0.0098856818 0.25028643 -0.85800004
-0.0071058446 0.249703 -0.85600007
-0.004333809 0.24882787 -0.85300004
-0.0015829565 0.24824445 -0.85100001
0.0011550137 0.24766104 -0.84900004
0.0038755203 0.24678589 -0.84600002
0.0065845056 0.24620248 -0.84400004
0.009280609 0.24561907 -0.84200007
0.011978072 0.24532735 -0.84100002
0.014651632 0.24474394 -0.83900005
0.017332992 0.24445224 -0.83800006
0.020007912 0.24416052 -0.83700001
0.02267639 0.24386881 -0.83600003
0.025338426 0.24357711 -0.83500004
0.027994022 0.2432854 -0.83400005
0.030643178 0.2429937 -0.83300006
0.033285893 0.24270198 -0.83200002
0.035965394 0.24270198 -0.83200002
0.038598444 0.24241027 -0.83100003
0.041225057 0.24211857 -0.83000004
0.043898117 0.24211857 -0.83000004
0.046515066 0.24182686 -0.82900006
0.049184904 0.24182686 -0.82900006
0.051854745 0.24182686 -0.82900006
0.054458812 0.24153516 -0.82800007
0.057125434 0.24153516 -0.82800007
0.059719834 0.24124342 -0.82700002
0.062307797 0.24095172 -0.82600003
0.064889327 0.24066001 -0.82500005
0.067464404 0.24036831 -0.82400006
0.070033044 0.24007659 -0.82300001
0.072595246 0.23978488 -0.82200003
0.075059474 0.23920147 -0.82000005
0.077510804 0.23861805 -0.81800002
0.08004725 0.23832634 -0.81700003
0.082476042 0.23774293 -0.81500006
0.084996372 0.23745121 -0.81400001
0.087402627 0.2368678 -0.81200004
0.088909127 0.2339507 -0.80200005
0.093089134 0.23803464 -0.81600004
0.095717102 0.23803464 -0.81600004
0.098345071 0.23803464 -0.81600004
0.094291002 0.22228234 -0.76200002
0.098268613 0.22578286 -0.77400005
0.10024059 0.22461602 -0.77000004
0.10232019 0.22374088 -0.76700002
0.10492699 0.22403258 -0.76800001
0.10698085 0.22315747 -0.76500005
0.10973069 0.22374088 -0.76700002
0.11176201 0.22286576 -0.76400006
0.11377399 0.22199063 -0.76100004
0.11591938 0.22140722 -0.75900006
0.11805189 0.22082379 -0.75700003
0.12001234 0.21994866 -0.75400001
0.12211586 0.21936525 -0.75200003
0.12420651 0.21878184 -0.75000006
0.12645309 0.21849011 -0.74900001
0.12852117 0.2179067 -0.74700004
0.13075167 0.21761499 -0.74600005
0.13297571 0.21732329 -0.74500006
0.1350116 0.21673986 -0.74300003
0.13721953 0.21644816 -0.74200004
0.16821696 0.25641233 -0.87900007
0.17124242 0.25670403 -0.88000005
0.17447212 0.25728744 -0.88200003
0.17771474 0.25787085 -0.88400006
0.18117446 0.25874597 -0.88700002
0.18444605 0.25932941 -0.88900006
0.18794121 0.26020452 -0.89200002
0.19145569 0.26107964 -0.89500004
0.19520664 0.26224649 -0.89900005
0.19920371 0.26370504 -0.90400004
0.20323297 0.26516357 -0.90900004
0.20774806 0.26720554 -0.91600007
0.21230823 0.2692475 -0.92300004
0.21551402 0.26953921 -0.92400002
0.22416489 0.27654025 -0.94800007
0.22865607 0.27829048 -0.95400006
0.23755811 0.28529152 -0.97800004
0.24390741 0.28908372 -0.99100006
0.24984176 0.29229254 -1.0020001
0.25584692 0.29550132 -1.013
0.26141143 0.29812673 -1.0220001
0.26703387 0.30075207 -1.031
0.27245206 0.30308577 -1.039
0.27765635 0.30512771 -1.046
0.28317434 0.30746138 -1.054
0.2890158 0.31008679 -1.0630001
0.29491523 0.31271216 -1.072
0.30115095 0.31562924 -1.082
0.30716953 0.31825465 -1.0910001
0.31353086 0.32117173 -1.1010001
0.32226047 0.32642251 -1.1190001
0.33372694 0.33429864 -1.146
0.33977315 0.33663231 -1.154
0.34557322 0.33867428 -1.161
0.34961319 0.33896598 -1.1620001
0.46495739 0.44602323 -1.529
0.4695743 0.44573152 -1.5280001
0.47542688 0.44660664 -1.531
0.48161259 0.44777349 -1.5350001
0.48814103 0.44923204 -1.5400001
0.49534205 0.45127398 -1.5470001
0.50291157 0.45360765 -1.5550001
0.51085925 0.45623305 -1.5640001
0.51919478 0.45915017 -1.5740001
0.52826083 0.46265066 -1.5860001
0.53807682 0.46673456 -1.6
0.5483225 0.47111022 -1.6150001
0.5586648 0.47548586 -1.6300001
0.5694496 0.48015317 -1.646
0.57928997 0.4839454 -1.659
0.58815688 0.48686248 -1.669
0.59602135 0.48890448 -1.6760001
0.60213667 0.48948789 -1.6780001
0.60681665 0.48890448 -1.6760001
0.60965729 0.48686248 -1.669
0.61097884 0.48365372 -1.6580001
0.61074269 0.47927809 -1.6430001
0.60928506 0.47402731 -1.6250001
0.60695511 0.46819311 -1.605
0.60449642 0.46235892 -1.585
0.60190886 0.45652476 -1.5650001
0.60035598 0.45156571 -1.5480001
0.59986669 0.44748175 -1.534
0.59968156 0.44368955 -1.521
0.60020769 0.44048077 -1.5100001
0.60186505 0.4381471 -1.5020001
0.60387486 0.43610513 -1.4950001
0.60665375 0.43464658 -1.4900001
0.60981089 0.43347973 -1.4860001
0.61376947 0.43289632 -1.4840001
0.61813194 0.43260461 -1.483
0.62290806 0.43260461 -1.483
0.62810743 0.43289632 -1.4840001
0.63373959 0.43347973 -1.4860001
0.63981444 0.43435487 -1.4890001
0.64590859 0.43522999 -1.4920001
0.65245819 0.43639681 -1.4960001
0.65859425 0.43727195 -1.4990001
0.66519213 0.43843877 -1.503
0.67137003 0.43931392 -1.506
0.67711818 0.43989733 -1.508
0.68287927 0.44048077 -1.5100001
0.68910873 0.44135591 -1.5130001
0.69489878 0.44193932 -1.5150001
0.70070171 0.44252273 -1.5170001
0.70698267 0.44339785 -1.5200001
0.71281451 0.44398126 -1.5220001
0.71913093 0.44485641 -1.5250001
0.7249918 0.44543982 -1.5270001
0.7308656 0.44602323 -1.529
0.73627108 0.44631493 -1.5300001
0.74168295 0.44660664 -1.531
0.74661356 0.44660664 -1.531
0.75154424 0.44660664 -1.531
0.75647491 0.44660664 -1.531
0.76041096 0.44602323 -1.529
0.76433408 0.44543982 -1.5270001
0.76824439 0.44485641 -1.5250001
0.77214175 0.44427299 -1.5230001
0.77602619 0.44368955 -1.521
0.778871 0.44252273 -1.5170001
0.78323984 0.442231 -1.516
0.78864211 0.44252273 -1.5170001
0.79352766 0.44252273 -1.5170001
0.79683429 0.44164759 -1.5140001
0.80171025 0.44164759 -1.5140001
0.80392241 0.44018903 -1.5090001
-0.60101068 0.43215585 -1.498
-0.59658432 0.43244433 -1.4990001
-0.5870195 0.4289825 -1.4870001
-0.58771217 0.43302131 -1.501
-0.21931176 0.18607512 -0.64500004
-0.21723451 0.18607512 -0.64500004
-0.21515724 0.18607512 -0.64500004
-0.21274965 0.18578663 -0.64400005
-0.21067561 0.18578663 -0.64400005
-0.20860156 0.18578663 -0.64400005
-0.20620681 0.18549813 -0.64300001
-0.204136 0.18549813 -0.64300001
-0.20175093 0.18520965 -0.64200002
-0.19968335 0.18520965 -0.64200002
-0.19761576 0.18520965 -0.64200002
-0.19554816 0.18520965 -0.64200002
-0.19317919 0.18492116 -0.64100003
-0.19111481 0.18492116 -0.64100003
-0.18875551 0.18463267 -0.64000005
-0.18669437 0.18463267 -0.64000005
-0.18434472 0.18434419 -0.63900006
-0.1820015 0.18405569 -0.63800001
-0.17966475 0.1837672 -0.63700002
-0.1770556 0.18319024 -0.63500005
-0.17445932 0.18261325 -0.63300002
-0.17133117 0.18145929 -0.62900001
-0.16822878 0.18030533 -0.625
-0.1654181 0.17943989 -0.62200004
-0.16262674 0.17857441 -0.61900002
-0.15985471 0.17770895 -0.61600006
-0.15735827 0.17713197 -0.61400002
-0.15487473 0.17655499 -0.61200005
-0.15240405 0.175978 -0.61000001
-0.14994629 0.17540105 -0.60800004
-0.14774479 0.17511256 -0.60700005
-0.14530954 0.17453557 -0.60500002
-0.14312416 0.17424709 -0.60400003
-0.14094521 0.1739586 -0.60300004
-0.1387727 0.17367011 -0.60200006
-0.13683392 0.17367011 -0.60200006
-0.13467106 0.17338161 -0.60100001
-0.13273551 0.17338161 -0.60100001
-0.1310176 0.17367011 -0.60200006
-0.12907884 0.17367011 -0.60200006
-0.12735124 0.1739586 -0.60300004
-0.1258252 0.17453557 -0.60500002
-0.12428628 0.17511256 -0.60700005
-0.12273446 0.17568953 -0.60900003
-0.12116977 0.17626649 -0.611
-0.11959221 0.17684348 -0.61300004
-0.11819363 0.17770895 -0.61600006
-0.11658707 0.17828593 -0.61800003
-0.11515307 0.1791514 -0.62100005
-0.11369973 0.18001685 -0.62400001
-0.11222707 0.18088232 -0.62700003
-0.11055933 0.18145929 -0.62900001
-0.10905125 0.18232477 -0.63200003
-0.10752385 0.18319024 -0.63500005
-0.10581101 0.1837672 -0.63700002
-0.10424819 0.18463267 -0.64000005
-0.10250636 0.18520965 -0.64200002
-0.10090812 0.18607512 -0.64500004
-0.099290527 0.18694057 -0.648
-0.097503625 0.18751755 -0.65000004
-0.095850624 0.18838303 -0.65300006
-0.094178289 0.18924849 -0.65600002
-0.092486635 0.19011396 -0.65900004
-0.090638541 0.19069092 -0.66100001
-0.088911466 0.19155639 -0.66400003
-0.087165065 0.19242187 -0.66700006
-0.085399345 0.19328733 -0.67000002
-0.083614297 0.1941528 -0.67300004
-0.081809923 0.19501826 -0.67600006
